# .PCD v0.7 - Point Cloud Data file format
VERSION 0.7
FIELDS x y z
SIZE 4 4 4
TYPE F F F
COUNT 1 1 1
WIDTH 1236
HEIGHT 1
VIEWPOINT 0 0 0 1 0 0 0
POINTS 1236
DATA ascii
-0.017473379 0.030280115 -0.0037044843
-0.013493013 0.032230921 -0.0047216234
-0.026527783 0.033472672 -0.007453647
-0.026585158 0.034501597 -0.007453646
-0.026459964 0.033409216 -0.0052534142
-0.020466598 0.034424327 -0.0070595224
-0.038393077 0.015469225 -0.0048932093
-0.03659118 0.012396095 -0.0082535371
-0.030768558 0.016570764 -0.0048131021
-0.03102494 0.016078332 -0.0066591855
-0.03142675 0.016390519 -0.008090918
-0.031584866 0.015471959 -0.0078645851
-0.030830014 0.016454482 -0.0074118651
-0.03272384 0.012489693 -0.0077120434
-0.037516925 0.015499594 -0.0071994402
-0.028791621 0.019839713 0.0013979705
-0.029140072 0.019292736 0.0013482007
-0.028329033 0.020477938 0.0012537667
-0.030428391 0.017576294 0.0072912141
-0.030202936 0.018145056 0.0075399834
-0.029727016 0.018545644 0.0072639002
-0.029661093 0.018474923 0.0002538281
-0.030287744 0.017469229 -0.0037168034
-0.030285297 0.017474378 -0.0026602913
-0.029978558 0.017976651 -0.0021031594
-0.027948571 0.020974519 0.0057683252
-0.027600322 0.021428371 0.0062610209
-0.028337734 0.020467358 0.0052126809
-0.027963031 0.020955691 0.0054997397
-0.028298592 0.020518603 -0.0037592778
-0.028317817 0.020493077 -0.0028217665
-0.033756673 0.020752968 -0.0057279109
-0.032363147 0.019435057 -0.0082536181
-0.031482227 0.019520404 -0.0082536349
-0.031543486 0.017437572 -0.0082489047
-0.034498472 0.019544708 -0.0067834384
-0.032472234 0.017478796 -0.0082536163
-0.035475716 0.019458504 -0.0071994793
-0.031031575 0.016065473 -0.0037792006
-0.030788528 0.016532393 -0.0038006874
-0.031317983 0.01551527 -0.0037492556
-0.030772442 0.01656335 -0.0057193357
-0.030301206 0.01743939 -0.0046927226
-0.030235969 0.017558316 -0.0066410797
-0.030780271 0.016548352 -0.0068074428
-0.031316746 0.02433853 -0.0037466534
-0.029428178 0.023545014 -0.008253675
-0.029533215 0.022417868 -0.0082536722
-0.027479142 0.021586532 -0.0026955616
-0.027198087 0.022493446 -0.007985021
-0.028588612 0.022353249 -0.0082536908
-0.031547472 0.021497237 -0.008253634
-0.027414424 0.02938755 -0.0071655409
-0.026480934 0.028548168 -0.0082537318
-0.0274895 0.028558949 -0.0078473045
-0.027561555 0.030520173 -0.0071996315
-0.02839727 0.03143879 -0.0052533774
-0.028474227 0.030531013 -0.0071996143
-0.028431397 0.030412296 -0.0050690281
-0.027365496 0.029401356 -0.0074986438
-0.023463476 0.027554164 -0.0082517164
-0.02449166 0.027496809 -0.0082537699
-0.025518822 0.027511762 -0.0082537495
-0.025516452 0.026445599 -0.0082537504
-0.020611946 0.033603929 -0.0079900697
-0.022522019 0.032646708 -0.0067827767
-0.022487618 0.032640353 -0.0058377371
-0.021973047 0.032969542 -0.0063172742
-0.021537583 0.031546332 -0.0082538268
-0.023726979 0.033757307 -0.0048063723
-0.021503074 0.034547947 -0.0074537434
-0.022436004 0.035459675 -0.0052534915
-0.021365354 0.034405649 -0.0071997512
-0.021531226 0.035419747 -0.0050057834
-0.021533426 0.032584228 -0.008216165
-0.021515498 0.033400476 -0.0068924064
-0.025743345 0.023723977 -0.0076349895
-0.025695352 0.023677887 -0.0067101126
-0.026530284 0.023478853 -0.0080794832
-0.026402391 0.02441773 -0.0082418015
-0.025399661 0.024375634 -0.0079143113
-0.025456 0.025562773 -0.0082530072
-0.029458653 0.027454505 -0.0071995948
-0.02842248 0.026504816 -0.0082536936
-0.029499756 0.026496613 -0.0068089687
-0.025645282 0.02373247 -0.0037286507
-0.025127459 0.02429756 -0.0037137202
-0.02516002 0.024262058 -0.0048874831
-0.025750278 0.023617918 -0.0047179726
-0.025657915 0.023718642 -0.0028316295
-0.026147224 0.023184689 -0.0036496348
-0.026163695 0.023166666 -0.0016577429
-0.025696406 0.023676636 -0.0018591632
-0.024446331 0.026536429 -0.0082505988
-0.024701357 0.024804855 0.0070729512
-0.025246944 0.024166973 0.0062467828
-0.024738347 0.024713526 0.0062551992
-0.024232237 0.025186563 0.0061081951
-0.025260847 0.024151878 0.0020755625
-0.025691954 0.023681441 0.00028527639
-0.025733629 0.023635933 0.0012159356
-0.023738945 0.0256999 0.007163093
-0.023653103 0.025717245 0.0063222484
-0.025216321 0.024200538 -0.0016984685
-0.02521155 0.024205791 -0.0027717822
-0.024698099 0.024750071 0.00019528576
-0.024255913 0.025164964 0.00032880306
-0.024607919 0.024840863 0.0013569628
-0.025202362 0.02421576 0.0001161113
-0.02522078 0.024195643 0.0012067356
-0.03039423 0.017597342 -0.0077636694
-0.030507129 0.018443996 -0.0081797158
-0.029758738 0.018638553 -0.0078475
-0.027572377 0.021464856 0.0042326446
-0.027631789 0.021387422 0.0032646048
-0.026159296 0.023171412 0.0012533999
-0.026137007 0.023195745 0.00031893855
-0.026173914 0.023155475 -0.0007442889
-0.026684733 0.0225909 -0.00085127895
-0.027027316 0.022175314 -0.0006995963
-0.037423372 0.027428837 -0.0082535204
-0.03651689 0.028461868 -0.008253538
-0.03649269 0.027342202 -0.0080086133
-0.037397057 0.02845295 -0.0082535213
-0.038503796 0.027478712 -0.0082534999
-0.038447328 0.028464014 -0.0082535008
-0.03449164 0.017365055 -0.0082535772
-0.037290972 0.018370802 -0.0051162569
-0.035582114 0.019498156 -0.0074534724
-0.036478408 0.019529166 -0.0049219448
-0.036492176 0.018478157 -0.0071994597
-0.035423722 0.018365787 -0.0076656886
-0.037778866 0.016606437 -0.004958909
-0.037440948 0.015501896 -0.007453437
-0.046041265 0.019302825 -0.0076780049
-0.043526463 0.023671972 -0.0079847407
-0.044173378 0.023274967 -0.0066874381
-0.037437372 0.022442857 -0.0071994415
-0.037477236 0.021489101 -0.0071994411
-0.033561245 0.022515679 -0.0071815099
-0.035397209 0.028438555 -0.0080079427
-0.035267755 0.028312625 -0.0057628574
-0.035270672 0.028282249 -0.0068147085
-0.035620555 0.027598226 -0.007698332
-0.035462297 0.025519321 -0.0071994797
-0.033433866 0.024469422 -0.0049590631
-0.032510374 0.024403321 -0.0071995365
-0.03256413 0.024516331 -0.007453531
-0.032479044 0.02742924 -0.0052532982
-0.032457802 0.026495764 -0.0071995375
-0.030422056 0.025446238 -0.0057409317
-0.029440993 0.02440797 -0.008253674
-0.030489281 0.025511252 -0.0068555647
-0.031443972 0.024452174 -0.0070002102
-0.031458724 0.023526104 -0.008140713
-0.030498091 0.023522587 -0.0082536545
-0.03558692 0.024542863 -0.0051629827
-0.036581866 0.026432926 -0.0068543456
-0.036657285 0.026522154 -0.0057124076
-0.043110322 0.025190623 -0.0068878639
-0.043101318 0.02521001 -0.0059075165
-0.036523655 0.020495938 -0.0071994592
-0.036526196 0.021457078 -0.0074534547
-0.036406379 0.022463756 -0.0071994616
-0.036487237 0.022477644 -0.0052532214
-0.036554307 0.022505017 -0.0074534537
-0.036535181 0.021558816 -0.0071994588
-0.034487072 0.022492135 -0.0074534933
-0.033440728 0.02144766 -0.0078216866
-0.033438016 0.021540562 -0.0069506378
-0.033815682 0.020660216 -0.0067147012
-0.036495052 0.021381484 -0.0052532209
-0.039079227 0.031065749 -0.0057860445
-0.036498226 0.029516341 -0.008253538
-0.032168761 0.038193978 -0.004737813
-0.030476969 0.036517233 -0.0082536545
-0.031465836 0.037408344 -0.0082521979
-0.032666713 0.037740059 -0.0067691123
-0.023716904 0.031784452 -0.0047233501
-0.023662025 0.031830654 -0.0056404979
-0.023713151 0.031795159 -0.0068103834
-0.02239977 0.030389564 -0.00825381
-0.027404662 0.030473085 -0.0074536302
-0.032665975 0.02861386 -0.0049308436
-0.014469392 0.032514766 -0.0081604309
-0.014066062 0.031993568 -0.0070370757
-0.0054371348 0.043302223 -0.0047917706
-0.0053723971 0.041535333 -0.0074540544
-0.0055087502 0.042480633 -0.0072000562
-0.0064457622 0.042449027 -0.0072000381
-0.0095003564 0.044238418 -0.0046911226
-0.0094876839 0.04253538 -0.0074539748
-0.0094815176 0.042458422 -0.0071999799
-0.0034126455 0.034795299 0.0012592827
-0.003392379 0.034798056 -0.004677488
-0.013521696 0.032218963 0.0041439198
-0.014062638 0.031994939 -0.00062652252
-0.016520027 0.030791583 0.0053300248
-0.016605949 0.030746857 0.0043397211
-0.016094189 0.03101326 0.0050790715
-0.016073678 0.031023936 0.0061731897
-0.047549922 0.00043169563 -0.0082533257
-0.047441497 0.001483617 -0.0082533276
-0.04637808 -0.0014923833 -0.0082533481
-0.04751562 -0.0055038319 -0.0082533266
-0.046455409 -0.0054424726 -0.0082533471
-0.047443688 -0.0063911551 -0.0082533276
-0.047446273 -0.0045524002 -0.0082533276
-0.04842807 -0.0064557591 -0.0082526719
-0.04844119 -0.0055621774 -0.0082529094
-0.048419539 -0.0045543523 -0.0082533089
-0.044651438 -0.0065235035 -0.0077762203
-0.044722777 -0.0055801035 -0.007680336
-0.032673277 0.012434585 0.00024080968
-0.03181345 0.014507817 0.0062796236
-0.032008853 0.014038445 0.0054455856
-0.032025542 0.013998093 0.0060136211
-0.031811953 0.01451222 0.0012485235
-0.031736333 0.014679046 0.00024712636
-0.022530437 0.043481082 -0.0082470458
-0.022478156 0.044577196 -0.0058129742
-0.022525646 0.044551596 -0.0067026964
-0.0225059 0.044483393 -0.0077447044
-0.023258619 0.044107385 -0.0077087549
-0.026558798 0.040458366 -0.0082537299
-0.025745923 0.042785726 -0.0057266895
-0.025656918 0.042846449 -0.0067444383
-0.025583671 0.041421227 -0.0082537485
-0.020411182 0.042517506 -0.0082538482
-0.021461843 0.043499224 -0.0082538277
-0.01937178 0.041429676 -0.0082353735
-0.019616626 0.040780544 -0.0037866693
-0.019469086 0.04065831 -0.006890188
-0.019571604 0.040777184 -0.0056733545
-0.022493664 0.035490163 -0.0071997293
-0.018367279 0.035101362 -0.0058135875
-0.020363547 0.034421906 -0.0075235139
-0.046550572 0.017477656 -0.0078699347
-0.047946986 0.013825858 -0.0067144763
-0.047653437 0.013583289 -0.0080563957
-0.046462167 0.013423154 -0.0082533471
-0.0477935 0.014471808 -0.0067433533
-0.047592279 0.012477921 -0.0082253292
-0.048299007 0.012464462 -0.0077663916
-0.04809003 0.01335066 -0.0077245389
-0.048336159 0.012487384 -0.0067328345
-0.048098691 0.013386594 -0.0068242298
-0.046488773 0.012511292 -0.0082533462
-0.048341222 0.012440836 -0.0057250862
-0.039514426 0.01155523 -0.0071994015
-0.038519539 0.012451427 -0.007453416
-0.039494742 0.012550058 -0.007199402
-0.039683051 0.011446347 -0.0048459521
-0.043535549 0.012390455 -0.003798557
-0.034484167 0.012463069 -0.0082535772
-0.037349936 0.013501475 -0.0078331251
-0.038641412 0.014507661 -0.0048685656
-0.037323609 0.014407093 -0.0075987014
-0.038453005 0.015442664 -0.0071994215
-0.038336292 0.011431178 -0.0070500458
-0.038361374 0.011407884 -0.0076000341
-0.037642565 0.011528028 -0.0081103407
0.010478995 0.03361246 0.007381497
0.010385118 0.034037128 0.007727216
0.010491422 0.033338875 0.0062401937
0.0105024 0.03333541 0.0052287048
0.0046065105 0.034705177 0.0070964876
0.0016321486 0.034907855 0.0068066195
0.0032815968 0.035162479 0.0075590727
0.003489485 0.034789369 0.0063420814
0.0024823558 0.034870729 0.0062474837
0.0024653419 0.034871481 0.0067934184
0.0054388954 0.034532793 -0.0066450401
0.0065055131 0.034355186 -0.0067514889
0.0054241484 0.034534723 -0.0056473729
0.0055737072 0.034571014 -0.007634718
0.0046083378 0.034642123 -0.0067330776
0.0096112266 0.033616364 -0.0017437965
0.0095087718 0.03364861 -0.00079827954
0.0065021762 0.034355737 -0.0059184483
0.00646155 0.034364745 -0.0018076722
0.0073739658 0.034162685 -0.001720197
0.021541646 0.027535157 0.0063323607
0.022159033 0.02706142 0.0064757131
0.022573706 0.026726188 0.0062299254
0.020492308 0.028422588 0.0070757372
0.019453222 0.029447662 0.0074839299
0.018694835 0.029699953 0.0073220991
0.020990111 0.027959133 0.0069596004
0.022621552 0.026683683 0.0052210153
0.022660911 0.026649611 0.003292683
0.023671435 0.025728295 0.0061497935
0.023212938 0.026148425 0.0061364174
0.023761824 0.02574976 0.0072414116
0.023237571 0.02620844 0.0072216587
0.024261873 0.025187233 0.0060837525
0.024269423 0.025285797 0.0072207954
0.024246614 0.025201136 0.0014048561
0.024772765 0.024706418 0.002239418
-0.014079958 -0.032033261 -0.00088617363
-0.011296851 -0.033120871 0.0032154797
-0.011754056 -0.032976706 0.0043137632
-0.012523909 -0.032677762 0.0042932569
-0.012524042 -0.032677736 0.0012664942
-0.011802337 -0.032961495 0.0022392727
-0.011760025 -0.032974832 0.0032190359
-0.012464407 -0.032702427 0.0022989542
-0.012475776 -0.032697681 0.0062179626
-0.013067741 -0.033063482 0.0077105123
-0.012535036 -0.032774873 0.0072641475
-0.01255581 -0.032664549 0.005184216
-0.023681298 -0.025736917 0.0053290357
-0.023431383 -0.026471747 0.0075043053
-0.023839444 -0.025709927 0.0071445857
-0.023214146 -0.026164971 0.0061533535
0.014075138 -0.032047763 0.0042370535
0.013566399 -0.032258492 0.0042114635
0.014105526 -0.032035165 0.0031736288
0.01458063 -0.031834617 0.0041557583
0.014064813 -0.032052055 0.0062680324
0.014568233 -0.031841036 0.005199783
0.014622617 -0.031818021 0.0062648309
0.014047766 -0.032059103 0.004897349
0.014610619 -0.031839736 0.0069685522
0.013561013 -0.032260738 0.0062104855
0.013520058 -0.032509878 0.0073463474
0.0091132224 -0.034220606 0.0076166121
0.0087086605 -0.033912305 0.0062825289
0.0093932515 -0.033803567 0.0070708143
0.010498161 -0.03338223 0.0012275387
0.010449867 -0.033397451 0.00020738097
0.010381882 -0.033418898 0.0023942236
0.011360362 -0.033110365 0.00019605928
0.011315744 -0.033124443 0.001312281
0.011326927 -0.033120923 0.0022445668
0.010500957 -0.033381362 0.0032626665
0.01265697 -0.034524631 -0.0082544852
0.01344339 -0.034574281 -0.0082545001
0.012434561 -0.033605587 -0.0082234927
0.011867194 -0.032976583 -0.0075560245
0.011574102 -0.035523038 -0.0082544638
0.010536416 -0.035525307 -0.0082544442
0.011670842 -0.037943881 -0.0036264311
0.010451837 -0.033396814 -0.0017537469
0.010443638 -0.033399396 -0.0027114633
0.010466919 -0.033392068 -0.00069453899
0.011289199 -0.033132799 -0.00083632313
0.0094916532 -0.033699546 -0.0027902122
0.0095279878 -0.03368805 -0.0047741435
0.009479492 -0.033703037 -0.0057821786
0.0055343253 -0.034565713 -0.0068029212
0.0064561381 -0.034411434 -0.0007863997
0.0054815216 -0.034572676 -0.0017048192
0.0045066709 -0.034701031 0.0022457766
0.0055479631 -0.034563936 0.0022805976
0.0064765462 -0.034406904 -0.0047836727
0.006483533 -0.034405079 -0.0058594565
0.015505145 -0.031381167 0.0033250886
0.014638666 -0.031812508 0.0033024515
0.015470387 -0.031399246 0.0022878861
0.015533332 -0.031366501 0.0041831224
0.016071282 -0.031086436 0.0024785628
0.016068339 -0.031087976 0.0033163431
0.016061787 -0.031091392 0.0038232561
0.018578308 -0.029657489 0.0012498723
0.017565735 -0.030293426 0.0012035221
0.018566133 -0.029665232 0.00027635266
0.018551491 -0.029674577 0.0021220404
0.019251607 -0.029228536 0.0011603283
0.016106891 -0.031067839 -0.0038160812
0.015544989 -0.031360447 0.0063396911
0.016094174 -0.03107455 0.0054322127
0.01550774 -0.03137983 0.0053611803
0.016151527 -0.031044697 0.0063666492
0.01546877 -0.03153285 0.0072758789
0.012476405 -0.032709956 -0.00071627944
0.012560834 -0.032674968 -0.0018213033
0.011832372 -0.032961536 0.00015851023
0.011787167 -0.032975789 -0.00063860096
0.011880838 -0.032946229 -0.0017540756
0.01132886 -0.033120282 -0.0028008323
0.011329249 -0.033120167 -0.0017620049
0.014558294 -0.031845458 -0.0047144918
0.014642384 -0.031808749 -0.0038875011
0.011842932 -0.032957893 -0.0057768761
0.011853994 -0.032954678 -0.0066153323
0.013487094 -0.032291256 -0.0067176507
0.013476677 -0.032456953 -0.0077345613
0.01251758 -0.03269285 -0.0067230626
0.014092844 -0.032040358 -0.0046254578
0.014086092 -0.032043144 -0.0057125399
0.011228239 -0.033152051 0.0041940357
0.010470198 -0.033391077 0.0061282609
0.010463747 -0.033393104 0.0052473899
0.010510067 -0.033378493 0.0043061231
0.012547588 -0.032680485 0.0022170476
0.011815335 -0.032966893 0.0021245365
0.012492987 -0.032703098 0.0012434488
0.011858191 -0.032953415 0.0032122761
0.012529952 -0.032687802 0.0032097416
0.012706366 -0.032614704 0.0002519433
0.013485775 -0.032291867 0.0022001404
0.013394663 -0.032329619 0.0033132932
0.0055081481 -0.034569185 0.0042310464
0.0052696699 -0.035085343 0.0076742037
0.0056129955 -0.034555383 0.0052520973
0.0045015793 -0.034701705 0.004233398
0.0055004181 -0.034570199 0.0032496825
0.0045131668 -0.034700178 0.0031954094
0.0035182491 -0.034831159 0.0062319036
0.0035473949 -0.034865979 0.006977363
0.0034423165 -0.034840874 0.0051915939
0.0044677393 -0.034706164 0.0052049123
0.0045765047 -0.034691848 0.0061646448
0.0015644602 -0.035512768 -0.008153839
-0.015530189 -0.040705446 -0.0049159741
-0.015447203 -0.039534707 -0.0074538602
-0.015402339 -0.039587814 -0.0071998653
-0.015035437 -0.041036699 -0.0050365021
-0.017564317 -0.039613843 -0.0050800326
-0.016474364 -0.038580839 -0.0074538402
-0.016910227 -0.047017016 -0.0046505551
-0.017525516 -0.046793442 -0.004771803
-0.017496392 -0.044568077 -0.0082539041
-0.017473117 -0.045467116 -0.008253905
-0.016411839 -0.044534285 -0.0082539255
-0.016553041 -0.045637947 -0.0082539227
-0.01650879 -0.047175724 -0.0077086887
-0.016516877 -0.047174327 -0.0067760479
-0.015534158 -0.045569029 -0.0082539422
-0.016493764 -0.04718519 -0.0057597319
-0.011375216 -0.046551317 -0.0082540223
-0.01250433 -0.04837681 -0.0057556112
-0.011576311 -0.04756958 -0.0082481671
-0.011520746 -0.048645508 -0.0057855202
-0.010489116 -0.047448285 -0.0082540391
-0.012498626 -0.046451692 -0.0082540009
-0.011572354 -0.045610629 -0.0082540186
-0.043595903 -0.010577628 -0.0075703678
-0.044260677 -0.010414267 -0.0080619091
-0.043642409 -0.011509979 -0.0077068955
-0.04357693 -0.011554828 -0.0069110477
-0.044250883 -0.0095067564 -0.006787017
-0.044539258 -0.0076164291 -0.00780854
-0.044071376 -0.010370633 -0.0057242881
-0.044057261 -0.010409931 -0.004905534
-0.043430496 -0.0095290411 -0.0071993261
-0.04407515 -0.010324432 -0.0068565239
-0.043545574 -0.010621017 -0.0070882556
-0.04353027 -0.0095223952 -0.0074533196
-0.043771625 -0.011478087 -0.0058704512
-0.047795713 -0.014504502 -0.0047698845
-0.048316047 -0.012492022 -0.0076884991
-0.047383349 -0.015617171 -0.0077472795
-0.047739945 -0.013591362 -0.0079983072
-0.04809146 -0.013346387 -0.0076754964
-0.048084147 -0.013448836 -0.0068140239
-0.047434874 -0.011572437 -0.0082507404
-0.045480631 -0.011524713 -0.0082533658
-0.044538554 -0.011519792 -0.0082533835
-0.045465142 -0.010598211 -0.0082533658
-0.045575436 -0.0086273421 -0.0082533639
-0.046451006 -0.0094278995 -0.0082533471
-0.045657005 -0.0094851945 -0.008253362
-0.046588279 -0.0085494053 -0.0082533443
-0.045479849 -0.0075203949 -0.0082533658
-0.044363841 -0.0094790068 -0.0078823129
-0.044460345 -0.0085459966 -0.0078696152
-0.045886211 -0.019754458 -0.0067406809
-0.045614231 -0.019720014 -0.0078918468
-0.045893408 -0.019749535 -0.0056913057
-0.046078097 -0.019324388 -0.005662946
-0.042453192 -0.01954262 -0.0082534235
-0.041455649 -0.019406592 -0.0081770541
-0.043498367 -0.019554462 -0.0082534039
-0.043323003 -0.014499946 -0.0082080187
-0.046963766 -0.016886225 -0.0067293085
-0.046550121 -0.016569456 -0.0081278011
-0.046763506 -0.017503018 -0.0067417556
-0.048816931 -0.01057904 -0.0067436495
-0.048960201 -0.0098809358 -0.0067396406
-0.048697453 -0.010461302 -0.0078466469
-0.047490314 -0.010510227 -0.0082533266
-0.048583522 -0.011571066 -0.0067539942
-0.048489336 -0.011616265 -0.0077861333
-0.038556792 -0.018605342 -0.0074534155
-0.038516946 -0.019486738 -0.0071994211
-0.038481407 -0.01865338 -0.0071994211
-0.039479423 -0.019521551 -0.007199402
-0.039411429 -0.01849976 -0.0071994038
-0.039419536 -0.018514277 -0.0048823431
-0.0410165 -0.019194251 -0.0056454604
-0.040437229 -0.018466709 -0.0071993838
-0.040430471 -0.018459646 -0.0074533788
-0.040776413 -0.019678677 -0.0058487458
-0.040573716 -0.019531302 -0.0069235144
-0.041037086 -0.019161656 -0.0067927833
-0.039502967 -0.018520104 -0.0074533974
-0.02876937 -0.040843464 -0.0057251058
-0.027541928 -0.039526932 -0.0082537113
-0.028294271 -0.041184448 -0.0068424153
-0.028211182 -0.041224405 -0.0076436321
-0.028636688 -0.04076362 -0.0078029768
-0.028747493 -0.040860597 -0.0067590657
-0.026339538 -0.042377073 -0.0077413577
-0.025592105 -0.042717051 -0.0079087317
-0.02698034 -0.042012572 -0.0057004001
-0.027464803 -0.041721448 -0.0067669563
-0.027594356 -0.041571084 -0.0077812229
-0.026511272 -0.040477119 -0.0082537308
-0.027451614 -0.040407065 -0.0082472442
-0.024442889 -0.039517883 -0.0082537709
-0.023406338 -0.038642995 -0.0077676289
-0.023429891 -0.039529085 -0.0082537904
-0.024427362 -0.038401105 -0.0081251301
-0.024386177 -0.040615316 -0.0082537718
-0.025386205 -0.038567476 -0.0082537523
-0.025502415 -0.039542068 -0.0082537504
-0.034019034 -0.019074455 -0.0022127209
-0.03259642 -0.01750225 -0.0082536135
-0.032581788 -0.018489888 -0.0082536135
-0.031445242 -0.01852935 -0.0082536358
-0.035796329 -0.02059133 -0.0048570116
-0.034503706 -0.019514807 -0.0078046033
-0.035497002 -0.019607926 -0.0074534742
-0.035541791 -0.020572511 -0.0071994779
-0.034499403 -0.019545814 -0.0056777946
-0.039579164 -0.021486692 -0.0076873521
-0.038521715 -0.020518115 -0.0071994206
-0.037486766 -0.029458355 -0.0082535194
-0.038463712 -0.029549681 -0.0082535008
-0.036449153 -0.030491775 -0.0082535399
-0.036545031 -0.029512204 -0.008253538
-0.037479732 -0.030472251 -0.0082535194
-0.036577716 -0.031337678 -0.0082535371
-0.035491109 -0.030627167 -0.0082535576
-0.04260553 -0.025573945 -0.0079355361
-0.043109208 -0.025270155 -0.0067770118
-0.043120716 -0.02522302 -0.0076600597
-0.042792168 -0.025757115 -0.0058234255
-0.042789601 -0.025767287 -0.0067726187
-0.041488189 -0.024470607 -0.0082534421
-0.031413641 -0.03850754 -0.0079712924
-0.03146226 -0.037569012 -0.0082503324
-0.032188311 -0.038164154 -0.007747401
-0.031535216 -0.038723808 -0.0067240875
-0.031079885 -0.039090946 -0.0076323659
-0.030598575 -0.038598426 -0.0082176393
-0.029960496 -0.040011294 -0.0059037744
-0.029414127 -0.038518 -0.008253675
-0.028500851 -0.038517877 -0.0082536926
-0.029438073 -0.040374838 -0.00670511
-0.029486962 -0.039589532 -0.0081870463
-0.029428549 -0.04034356 -0.0076931035
-0.028513823 -0.039448403 -0.0082536926
-0.028841196 -0.01980762 -0.0066491896
-0.035394125 -0.021418858 -0.0071994811
-0.037526291 -0.028555406 -0.0082535185
-0.037443381 -0.027409656 -0.0082535204
-0.030496243 -0.019464659 -0.0082536545
-0.031405132 -0.019558806 -0.0082536368
-0.025486525 -0.032628089 -0.0074536665
-0.032709237 -0.037747197 -0.0057500517
-0.031434584 -0.036431279 -0.0082536358
-0.03240522 -0.036526922 -0.0082497979
-0.032657005 -0.037791844 -0.0068225828
-0.034282282 -0.036355294 -0.0047401949
-0.011847117 -0.032947358 -0.0068307254
-0.011826438 -0.032953929 -0.002885021
-0.011381011 -0.033094376 -0.0037173545
-0.016625417 -0.030782258 -0.00071077066
-0.011268798 -0.033129774 -0.0057814545
-0.01056101 -0.033352941 -0.0057352525
-0.011274743 -0.033127889 -0.0047800364
-0.01127605 -0.03312749 -0.006690301
-0.011755524 -0.032976184 -0.0058033722
-0.026412601 -0.035453491 -0.0071996539
-0.025574457 -0.03440677 -0.0052534319
-0.025517929 -0.033537179 -0.0071996711
-0.024486355 -0.033579532 -0.0074536866
-0.025378697 -0.034588654 -0.0071996734
-0.025482807 -0.029547689 -0.0082176169
-0.025444483 -0.030431222 -0.0078969253
-0.023541648 -0.029498564 -0.0082537876
-0.014052327 -0.032044671 0.0032867878
-0.014557253 -0.031832166 -0.00071128312
-0.016578294 -0.03080678 0.0013031344
-0.015520747 -0.0313573 0.0021737635
-0.016627828 -0.030780977 0.0022297788
-0.020389661 -0.028440841 0.0062905061
-0.019697607 -0.028925108 0.0062078745
-0.019856691 -0.028823748 0.0069006821
-0.019198947 -0.029242814 0.005268205
-0.019580508 -0.028999722 0.0051224725
-0.019252906 -0.029208422 0.0061787316
-0.018498959 -0.029688749 0.0061901673
-0.018499954 -0.029688127 0.005212537
-0.01923522 -0.029219735 0.0022530102
-0.019755965 -0.028887991 0.0012184449
-0.019766841 -0.02888108 0.00019449793
-0.019257098 -0.02920581 0.0012736151
-0.020603545 -0.028472858 0.0072611598
-0.01981378 -0.028851258 -0.0068532452
-0.020490047 -0.028364088 -0.0067835595
-0.020553429 -0.028553085 -0.0078951837
-0.019694457 -0.028930595 -0.0074377749
-0.019332455 -0.029157899 -0.0066937651
-0.019757645 -0.028886998 -0.0047835158
-0.019814793 -0.0288506 -0.0056972364
-0.019264568 -0.02920112 -0.0047584269
-0.019217623 -0.029231045 -0.0056439722
-0.017388584 -0.030377245 -0.0028088
-0.017477486 -0.030325467 -0.001822454
-0.01927443 -0.029194796 -0.00078755367
-0.018495115 -0.029691281 -0.00074711238
-0.019235101 -0.029219834 0.00026171017
-0.019212093 -0.029234523 -0.0016476151
-0.019719159 -0.028911462 -0.0007148484
-0.017597685 -0.030255064 0.0062778229
-0.017524168 -0.030492688 0.0072825691
-0.018476252 -0.030420568 0.0076765404
-0.018521959 -0.029690037 0.0070002736
-0.023676293 -0.025741683 -0.0047886563
-0.023684649 -0.025733918 0.0012040797
-0.02640361 -0.023393055 0.0074701463
-0.025700718 -0.023814285 0.0071950788
-0.026723946 -0.02276629 0.007296395
-0.026151374 -0.02322543 0.0063393679
-0.025262136 -0.024195876 0.006322158
-0.024723468 -0.024772402 0.0062887678
-0.024839031 -0.024742898 0.0071591525
-0.022388818 -0.039360467 -0.0057683899
-0.021488307 -0.038559377 -0.0074537443
-0.02245008 -0.039266385 -0.006843708
-0.022494549 -0.038551833 -0.0071997289
-0.022518041 -0.038680568 -0.0075036781
-0.021442212 -0.0374889 -0.0071997494
-0.020558314 -0.037598874 -0.0074537615
-0.014628557 -0.036889054 -0.003634264
-0.01550998 -0.036547817 -0.0047356226
-0.014594805 -0.036899302 -0.0066820746
-0.014656514 -0.036879983 -0.0057217414
-0.014509056 -0.036646362 -0.008076218
-0.014114272 -0.037079319 -0.0057571246
-0.013540443 -0.036468066 -0.0082539804
-0.018499263 -0.029688699 -0.0056964234
-0.018566538 -0.036851395 -0.0048787603
-0.018402813 -0.037364449 -0.0051388741
-0.019462124 -0.037482735 -0.0074537829
-0.02155848 -0.033461723 -0.0069392459
-0.021464555 -0.032447312 -0.0082364893
-0.021509757 -0.031535327 -0.0082538268
-0.021511758 -0.033330299 -0.0057116104
-0.020559631 -0.030447176 -0.0082538454
-0.023329131 -0.034485009 -0.0051443977
-0.023433393 -0.033534016 -0.0074537061
-0.022482852 -0.033590909 -0.0074537247
-0.023499316 -0.034522269 -0.0071997098
-0.024478989 -0.034588248 -0.0071996911
-0.022523211 -0.037504267 -0.0071997289
-0.021508574 -0.036506861 -0.0071997484
-0.023559937 -0.03642872 -0.0074537038
-0.023483953 -0.037527028 -0.0071997102
-0.024476469 -0.035428021 -0.0074536866
-0.024664158 -0.035707854 -0.0049973479
-0.024486015 -0.035637464 -0.0071996911
-0.024503209 -0.034619365 -0.0074536856
-0.02542844 -0.035458848 -0.0074536679
-0.025472848 -0.035601676 -0.0071996721
-0.026048589 -0.037059236 -0.0045067761
-0.02756585 -0.021518786 0.0061607347
-0.027746513 -0.021353984 0.0070869448
-0.027965792 -0.020997589 0.005288648
-0.027062951 -0.022174219 0.005121591
-0.027553381 -0.021535074 0.005207506
-0.027086897 -0.022142997 0.0062588626
-0.026686227 -0.02263483 0.0063009881
-0.027538475 -0.02155458 0.0012816207
-0.029157165 -0.019311542 -0.0038206514
-0.029681848 -0.018487828 -0.00074147817
-0.02937972 -0.019459212 -0.0078568412
-0.0296891 -0.018476626 -0.0058860239
-0.031017236 -0.017162507 0.0076770796
-0.030759189 -0.016633844 0.006236353
-0.030748127 -0.016655134 0.0052783568
-0.030340206 -0.017420294 0.006165287
-0.030773701 -0.016661672 0.0071000289
-0.030221572 -0.017626928 0.0012278411
-0.028354228 -0.020491306 0.0022737032
-0.027978761 -0.020980751 0.0023077212
-0.02796573 -0.020997763 0.0011488519
-0.02885635 -0.019783545 0.002253864
-0.04061345 -0.015428545 -0.0050084442
-0.039592888 -0.017583659 -0.0050677569
-0.03845235 -0.017471718 -0.0074534174
-0.042632055 -0.014502229 -0.0076274574
-0.041507073 -0.01463169 -0.0074533587
-0.04256447 -0.015445778 -0.0037226276
-0.033710789 -0.0095004532 -0.0076081585
-0.033540759 -0.01050874 -0.0078196609
-0.034421362 -0.0095117185 -0.0082059037
-0.033321965 -0.010575628 -0.0067428914
-0.035535652 -0.0083969105 -0.0082535567
-0.036473799 -0.0085561927 -0.008253539
-0.035461612 -0.0095225107 -0.0082535585
-0.034581296 -0.0083949212 -0.0079847593
-0.035415933 -0.0074317069 -0.0082535194
-0.038514152 -0.01749259 -0.0071994211
-0.037401743 -0.01762555 -0.0074534379
-0.036482967 -0.015567893 -0.0048760115
-0.034435827 -0.015468178 -0.0082535781
-0.037863597 -0.011782793 -0.0037911793
-0.035459191 -0.011503397 -0.0082535585
-0.037891001 -0.01163304 -0.0057321284
-0.036483318 -0.010570029 -0.008253539
-0.037610881 -0.012569545 -0.0057758125
-0.03642768 -0.012480551 -0.0082535399
-0.037884604 -0.01163297 -0.0067482558
-0.036530755 -0.01157791 -0.008253538
-0.037664406 -0.012552993 -0.0068611857
-0.038028084 -0.011176115 -0.005689804
-0.032550599 -0.015436353 -0.0082512982
-0.03103626 -0.016101671 0.0040364498
-0.031807136 -0.014937958 -0.0078447014
-0.032417573 -0.014628274 -0.0081846295
-0.034537118 -0.013506098 -0.0082535762
-0.034462716 -0.014582777 -0.0082535781
-0.034878526 -0.018863965 -0.0067348066
-0.03491585 -0.018822668 -0.0057494482
-0.035188213 -0.018344173 -0.0058125081
-0.034623522 -0.018627508 -0.0081169577
-0.03347607 -0.018494649 -0.0082535967
-0.034551598 -0.019523704 -0.0068330951
-0.033671565 -0.0095918234 0.0070596002
-0.033325151 -0.011573529 0.0074281958
-0.03344119 -0.01073475 0.007295012
-0.033907734 -0.0085640531 -0.0068302155
-0.034001254 -0.0081421901 -0.0066030719
-0.03389971 -0.0086067934 -0.0074570612
-0.033896811 -0.0086132269 -0.0059031271
-0.033672333 -0.0094642919 -0.0065920907
-0.032916009 -0.011862876 -0.0027552559
-0.033889093 -0.0086479466 -0.0047774799
-0.033360019 -0.010454828 -0.0057571596
-0.033652432 -0.009526493 -0.0058290097
-0.034530792 -0.0055157007 -0.0037352978
-0.034523595 -0.0055705965 -0.0048212791
-0.034531128 -0.0055136592 -0.0067707277
-0.034697928 -0.0055093155 -0.007844164
-0.035390858 -0.004583484 -0.0082084788
-0.034007747 -0.0081126671 -0.0036697737
-0.034924902 -0.0015131891 0.006986598
-0.035220344 -0.0033956862 0.0076293997
-0.034807995 -0.0036222509 0.0069696535
-0.034798667 -0.0034795164 0.006133636
-0.03400873 -0.0081073623 0.0063982778
-0.034155015 -0.0074474947 0.006196511
-0.0338648 -0.0087566171 0.0062366547
-0.033920586 -0.008620074 0.0070652654
-0.034413479 -0.0074903765 0.0074324189
-0.034362197 -0.0065108114 0.0022447424
-0.034536332 -0.005472614 0.0042411559
-0.034527671 -0.0055384436 0.0032564909
-0.033998888 -0.0081518646 0.0051760608
-0.046619877 0.0033558996 -0.0082533434
-0.047476701 0.0034543963 -0.0082533276
-0.046561122 0.0024862306 -0.0082533443
-0.047463678 0.0025140287 -0.0082533276
-0.049212553 0.0084190834 -0.0057943263
-0.049203683 0.0084271375 -0.0067781578
-0.047496341 0.0076716929 -0.0082533266
-0.047517728 0.0084690768 -0.0082533266
-0.04884804 0.01039716 -0.0057453504
-0.048828695 0.010510428 -0.0067412965
-0.047466166 0.010507831 -0.0082533276
-0.047359087 0.0094863158 -0.0082533294
-0.046419907 0.0073784827 -0.0082533471
-0.046467077 0.0085226726 -0.0082533462
-0.034786198 0.0035299079 -0.0017805491
-0.034660827 0.0044824718 -0.0027925244
-0.034359537 0.0064791902 -0.0057614902
-0.034536667 0.0054260283 -0.005783841
-0.03412858 0.0075222976 -0.0057005123
-0.034365147 0.0064536198 -0.0047347895
-0.034526825 0.0055005304 -0.004682688
-0.034152828 0.0074130422 -0.0068231798
-0.034569524 0.0065663881 -0.0078967782
-0.034515899 0.0055838912 -0.0067304531
-0.034589525 0.0054609156 -0.0076619079
-0.034339674 0.0065687499 -0.0068328697
-0.035547417 0.0065796725 -0.0082530845
-0.034461115 0.0074429153 -0.007904836
-0.035536382 0.007487861 -0.0082535567
-0.036581405 0.008579528 -0.0082535371
-0.035492495 0.0084292758 -0.0082535576
-0.036482461 0.0074543855 -0.008253539
-0.03873999 0.0084492657 -0.0037463659
-0.038742755 0.0084607434 -0.0047544893
-0.034962695 0.00049715274 0.0041818512
-0.034873866 0.0025305355 0.0062543009
-0.034964759 0.00044863453 0.0061832014
-0.034984045 7.6644674e-06 0.0052366946
-0.034984469 -2.6247847e-06 0.0063678608
-0.034959786 0.00056253903 0.0068443464
-0.034788117 0.0035149732 -0.0057193665
-0.034923393 -0.001446104 -0.0036358724
-0.035443064 -0.00043599898 -0.0080531277
-0.036297347 -0.00056538574 -0.0082535427
-0.036464062 0.00035276046 -0.008253539
-0.0352461 0.00053410389 -0.0080124494
-0.034957249 0.00062651344 -0.0066602528
-0.034921102 0.001453986 -0.0058533857
-0.040477119 0.0024801323 -0.0071993829
-0.039707456 0.00059044518 -0.0068839188
-0.036553383 -0.0035121834 -0.0082535371
-0.036510274 -0.0044954219 -0.008253538
-0.036425587 -0.0025740473 -0.0082535399
-0.039291579 -0.00653966 -0.0069180666
-0.037545439 -0.003477907 -0.0082535185
-0.04211935 -0.011561321 -0.0047934516
-0.037462253 -0.010553686 -0.0082535204
-0.038333412 -0.011395814 -0.0070766951
-0.042529974 0.0023875551 -0.005253105
-0.04247978 0.0024361589 -0.0071993447
-0.040423475 0.0034794377 -0.0074533797
-0.041496184 0.0025752911 -0.0074533587
-0.041469444 0.0035259293 -0.0074533592
-0.041434746 0.0034768188 -0.0071993647
-0.040399693 0.0085375402 -0.0071993847
-0.039090343 0.0065644956 -0.0057780263
-0.037422754 0.006573671 -0.0082535204
-0.039434772 0.0054186485 -0.0068539772
-0.039553761 0.0045214049 -0.0069742654
-0.039472908 0.0044522933 -0.0078027365
-0.046587624 0.0055206432 -0.0082533443
-0.046428476 0.0043876856 -0.0082533471
-0.032024976 0.01399965 0.0022007166
-0.032238323 0.013484517 0.0031704288
-0.032253493 0.013447905 0.0022536174
-0.032010704 0.01403402 0.0036661876
-0.031837467 0.014449531 0.0042612441
-0.033901908 0.0086053368 -0.0075569614
-0.034004696 0.0080811847 -0.0065379972
-0.034542125 0.008500779 -0.008142449
-0.034564294 0.0093910675 -0.0082382159
-0.033752449 0.0095384363 -0.0077358093
-0.03388926 0.0086018126 -0.0058195903
-0.034006685 0.008072203 -0.0061181285
-0.033886865 0.0086125825 -0.0047839261
-0.033908449 0.0085153971 -0.0067367353
-0.033632807 0.0095441733 -0.0057421802
-0.033631857 0.0095468964 -0.0067621646
-0.034356892 0.0064921766 -0.0027298362
-0.03365308 0.0094785895 0.0022286426
-0.032245353 0.013467455 0.0051383651
-0.032241888 0.013475755 0.0063436893
-0.033679206 0.0093958247 0.0032327217
-0.032909065 0.011837149 0.0061559086
-0.033317611 0.011360234 0.007387606
0.02848646 0.028474556 -0.0074947365
0.027489316 0.028549897 -0.0079551833
0.031617217 0.031414457 -0.0074547664
0.027550118 0.030436555 -0.0072006928
0.02655356 0.029457757 -0.0056882082
0.025632011 0.029422687 -0.0082110194
0.026656747 0.029575223 -0.0069139679
0.025438722 0.028521458 -0.0082547311
0.026623283 0.0285275 -0.0082547534
0.033548005 0.02544749 -0.0072008083
0.034558345 0.025528783 -0.0052545895
0.034527108 0.02546672 -0.0072008274
0.033515155 0.024656909 -0.0074548032
0.034545083 0.025539162 -0.0074548223
0.033593778 0.025394039 -0.0074548046
0.034588199 0.026486212 -0.0049598566
0.036222219 0.02718542 -0.0057993042
0.032518387 0.027477162 -0.0074547837
0.033521943 0.027500952 -0.0072008078
0.033460833 0.026523301 -0.0072008059
0.033647329 0.027586991 -0.0049351775
0.032464746 0.026533598 -0.0074547827
0.032658275 0.026468763 -0.007200791
0.023798086 0.031767055 -0.0068189949
0.02359199 0.031515881 -0.0081118885
0.023507215 0.030475484 -0.0082546938
0.023689186 0.031833962 -0.0057898778
0.026196735 0.023163455 0.00032592437
0.025729483 0.023673372 0.00023031914
0.025698582 0.023707071 -0.00067443948
0.025738176 0.023663843 -0.0017312093
0.027995296 0.020953076 0.0016222361
0.027994789 0.020953761 0.0023461168
0.027620872 0.021441014 0.00025506658
0.028011533 0.020931864 -0.00051273132
0.028358743 0.020479428 0.0022010386
0.039440818 0.018579917 -0.0049953149
0.038556252 0.017493302 -0.0072009047
0.03843407 0.018466333 -0.0072009023
0.036520179 0.017526874 -0.0072008655
0.036512192 0.017473908 -0.0074548605
0.037497107 0.016514609 -0.0072008842
0.038436566 0.017478192 -0.0052546635
0.037452098 0.017477551 -0.0072008832
0.042577323 0.013501966 -0.007200982
0.042447779 0.013546081 -0.007454975
0.04454058 0.012419371 -0.0082550989
0.044527013 0.011488276 -0.008255098
0.04438743 0.010445854 -0.0081121251
0.0432413 0.013447585 -0.0057080816
0.044527832 0.015388409 -0.0082550989
0.044500798 0.017517122 -0.008255098
0.043505583 0.015446963 -0.0082550785
0.04354779 0.016487816 -0.0082550794
0.043550286 0.017313758 -0.0082550794
0.042602703 0.014456632 -0.0069539384
0.042899493 0.014544712 -0.0057160137
0.043051161 0.014078358 -0.0060456526
0.042658687 0.014490003 -0.0076483167
0.043050494 0.014071101 -0.0069693271
0.042816594 0.014759729 -0.0031411005
0.04153965 0.0076403893 -0.0072009619
0.044581816 0.0074589192 -0.0037184136
0.042448442 0.0064134984 -0.007454975
0.043183558 0.0064637824 -0.0047994363
0.041433316 0.010473089 -0.0072009601
0.042490501 0.010507694 -0.0072009806
0.042510685 0.0084877405 -0.007200981
0.042418834 0.0094996896 -0.0072009792
0.044299446 0.0094602425 -0.0057165199
0.043437488 0.0083567444 -0.0074549941
0.044268426 0.0094165523 -0.0068081729
0.04439206 0.0084780771 -0.0068645971
0.043554023 0.0074623465 -0.007201001
0.042443134 0.0075631342 -0.007454975
0.044311296 0.0093990769 -0.0048010941
0.04251891 0.0084451083 -0.0074549764
0.043451238 0.0084855612 -0.0072009983
0.043447185 0.009561887 -0.0072009987
0.042435165 0.0094950553 -0.0074549746
0.043372184 0.0094648879 -0.0074549927
0.04408985 0.010346165 -0.0046842485
0.044113591 0.0102723 -0.0058001769
0.044124354 0.010211749 -0.0066735717
0.039518744 0.0094721224 -0.0072009233
0.039532907 0.0094453041 -0.0074549182
0.040520497 0.010401899 -0.0051911678
0.038779963 0.0084447358 -0.0057868557
0.03880164 0.0085081216 -0.0068689641
0.034720816 0.0064691878 -0.0079478081
0.030802475 0.016563552 0.0062599401
0.031140016 0.017342532 0.0077314111
0.030771613 0.016737478 0.00705502
0.031080052 0.016030321 0.0062631415
0.029695135 0.018468613 -0.0056600305
0.030011745 0.017971629 -0.0053636562
0.029717185 0.018433975 -0.0066953772
0.029742891 0.018393667 -0.0047843223
0.029177682 0.019280823 -0.0066282996
0.02918553 0.019268537 -0.0056737759
0.029189223 0.019262785 -0.0047703204
0.03185571 0.014479579 -0.0068016122
0.031824984 0.014641652 -0.0076346197
0.031053316 0.016081223 -0.0061747776
0.031431183 0.015355313 -0.0066858656
0.031054296 0.016079323 -0.006653517
0.031055763 0.016076611 -0.0037075959
0.030815255 0.016538637 -0.0037289551
0.03082308 0.016523557 -0.0047918572
0.032042727 0.014029318 -0.006845843
0.033602055 0.015550399 -0.0082548885
0.032537486 0.015529187 -0.0082415063
0.031876352 0.014428141 0.0041727447
0.031849828 0.014490055 0.0051888209
0.032038067 0.014041187 0.0064297323
0.031899795 0.014374876 0.0032772196
0.034141354 0.0076000332 -0.00080889714
0.034174398 0.0074510439 0.00027162195
0.03227631 0.013465399 -0.0067516072
0.033382129 0.011505293 -0.0080026519
0.034495372 0.011500979 -0.0082549052
0.035464108 0.0094924178 -0.0082549239
0.04048954 0.01052832 -0.0072009419
0.040469915 0.010452328 -0.0074549369
0.039558161 0.010541668 -0.0072009242
0.040495768 0.011468267 -0.0052547031
0.039624825 0.010485517 -0.0074549206
0.037929721 0.011619477 -0.0036798613
0.035457674 0.011413263 -0.0082549239
0.03542763 0.010472866 -0.0082549229
0.038383815 0.011438007 -0.0071185483
0.026623985 0.022694187 -0.0068150298
0.026171472 0.023190895 -0.0057555502
0.031321805 0.015565762 0.0023082725
0.031064169 0.016060652 0.0012546469
0.03080453 0.016559491 0.0031909321
0.030795669 0.016576486 0.002233837
0.031090956 0.016009236 0.0023728006
0.031063382 0.016062284 0.004360633
0.030865913 0.016441653 0.0051292796
0.030784963 0.016597116 0.004169283
0.031075155 0.016039627 0.0034090215
0.031050066 0.016087899 0.0052113137
0.031403922 0.015408093 0.0042719613
0.031413045 0.015390599 0.0051899161
0.03080189 0.01656446 0.00018349233
0.030313455 0.017476821 0.0012610436
0.029726986 0.018418798 0.00019051458
0.030231068 0.017617593 0.0031988134
0.030296121 0.01750672 0.0042567099
0.030012818 0.017970229 0.0042050485
0.03031032 0.017484413 0.0022867483
0.029686769 0.018481972 0.0021978344
0.029137965 0.019343453 0.0022939697
0.028858062 0.019782813 0.0022725887
0.028368525 0.02046659 0.0013336566
0.034333628 0.036271244 -0.0047939266
0.033449356 0.034545377 -0.0082548847
0.032506682 0.03454221 -0.008254867
0.033429895 0.035512611 -0.0082543846
0.032034088 0.032005258 -0.004719296
0.028514862 0.03146562 -0.0052544726
0.028473882 0.032400385 -0.0072007105
0.030585164 0.031452589 -0.007200751
0.029495737 0.031474017 -0.0074547259
0.028534196 0.031551495 -0.0074547073
0.030498959 0.038526371 -0.0082391435
0.029875539 0.03996671 -0.0057008103
0.029934887 0.039922163 -0.006669478
0.030440815 0.039579175 -0.0067697335
0.029507974 0.03840366 -0.0082548093
0.025430305 0.036470585 -0.0074546472
0.026052324 0.037008785 -0.0067921588
0.025488982 0.036432929 -0.0072006527
0.025536954 0.037391946 -0.0057078241
0.024535477 0.036455877 -0.00745463
0.023489853 0.040430307 -0.0082546938
0.023583198 0.041483007 -0.0082546957
0.027021136 0.042027928 -0.0055956566
0.026547931 0.041526563 -0.0081988703
0.02350519 0.038481355 -0.0077918121
0.023578677 0.037523739 -0.0074546114
0.02345136 0.038549773 -0.0069077951
0.023479061 0.039526068 -0.0082546929
0.022543849 0.039345846 -0.0079589086
0.024612827 0.037522793 -0.007618065
0.024293002 0.038157381 -0.0068302318
0.024646429 0.037547588 -0.0069724824
0.024433626 0.038405344 -0.0080911797
0.025566529 0.03731031 -0.0068842918
0.025568016 0.037414961 -0.0079118842
0.025475875 0.038537256 -0.008254732
0.02518307 0.043115661 -0.0074986094
0.024592938 0.043391109 -0.0077411556
0.025197236 0.043104239 -0.0067553944
0.024464132 0.042233557 -0.0082547124
0.033451457 0.026680605 -0.0074548018
0.034441523 0.026466379 -0.0072008255
0.033453368 0.028464379 -0.0072008064
0.034888256 0.028823273 -0.0057004523
0.034928761 0.02878681 -0.0048608151
0.033523001 0.027544754 -0.0074548032
0.033475105 0.030479262 -0.0079380944
0.032467548 0.031448744 -0.0069221356
0.032487169 0.031537667 -0.0056844219
0.033024777 0.030990938 -0.0069938777
0.034533098 0.031451024 -0.0082549062
0.025413685 0.033522978 -0.0072006513
0.024525503 0.033496432 -0.0074546295
0.025403541 0.033372834 -0.0074546463
0.025497574 0.034428336 -0.0052544149
0.025504258 0.034470074 -0.0072006527
0.023634322 0.037359826 -0.0038257632
0.023583438 0.036553726 -0.0049791341
0.022487907 0.035501562 -0.0074545909
0.023529962 0.036558345 -0.0072006155
0.020556625 0.037442639 -0.0052543194
0.019589063 0.036343671 -0.0074545345
0.021547444 0.037558906 -0.0051486907
0.021572068 0.035537772 -0.0072005778
0.021574488 0.035455287 -0.0074545732
0.02245293 0.036451593 -0.0052543557
0.022502422 0.036560878 -0.0072005955
0.021426726 0.036390796 -0.0074545699
0.022455806 0.03644377 -0.0074545899
0.021601344 0.036399372 -0.0072005782
0.022458965 0.039288238 -0.005910363
0.022449374 0.03923855 -0.0068033948
0.022524895 0.039266028 -0.0047143954
0.021546911 0.038476035 -0.0074545727
0.022501137 0.038512819 -0.0074779177
0.022594824 0.038537547 -0.0071582366
0.022451371 0.037535638 -0.0072005945
0.019263914 0.039123282 -0.0048325313
0.019678392 0.038657218 -0.0051094624
0.018502481 0.037491769 -0.007454514
0.018584136 0.038389228 -0.0072005196
0.018568857 0.038405843 -0.0074545154
0.019457441 0.037471578 -0.0072005368
0.01940308 0.038429856 -0.0074545308
0.020484056 0.040361054 -0.0057548364
0.020506756 0.040247217 -0.0069249445
0.019567814 0.040789716 -0.0048281616
0.019526474 0.039445795 -0.0074545331
0.019531319 0.040609092 -0.0069305333
0.017440686 0.040536202 -0.0074544935
0.018429397 0.041305624 -0.0047507272
0.018468106 0.039476007 -0.0072005177
0.018424664 0.040649213 -0.0072005172
0.017601538 0.04050456 -0.0072005014
0.017475931 0.039570041 -0.0072004986
0.017277151 0.040106341 -0.0047615287
0.016615422 0.039449818 -0.0074544773
0.017454626 0.039481707 -0.007454494
0.017560067 0.039630271 -0.0050931387
0.017456086 0.038421713 -0.0074544935
0.027531236 0.032579347 -0.0052544535
0.027512424 0.031461716 -0.0074546877
0.017536296 0.035548702 -0.0056433091
0.016529121 0.03446459 -0.0082545597
0.017573088 0.035632782 -0.0069653052
0.018326486 0.035164595 -0.0046838517
0.017488677 0.034479767 -0.0082545783
0.017318711 0.033419311 -0.0082545746
0.018436486 0.035095021 -0.0057625812
0.014580092 0.034444474 -0.0082545215
0.015504488 0.036514305 -0.0047159297
0.015468042 0.034563355 -0.0082545392
0.014535766 0.035546258 -0.0082545206
0.015487127 0.033537067 -0.0082545392
0.014469721 0.033404909 -0.0082545197
0.014566042 0.036879934 -0.0037458423
0.013501783 0.034343705 -0.008254501
0.013531972 0.033562899 -0.0082517639
0.0193063 0.029148178 0.00025857007
0.02099514 0.027954357 -0.004462502
0.021444093 0.027609849 -0.0047823247
0.021467598 0.027591841 -0.0037004503
0.020999577 0.027950937 -0.0058461684
0.022144625 0.027072372 -0.00076538423
0.022165522 0.027056361 0.0011344536
0.017429506 0.030324223 -0.0038150502
0.018005997 0.029976526 -0.0048298738
0.019684002 0.02890748 -0.0068940595
0.019784911 0.028843211 -0.0048707821
0.020448174 0.02837407 -0.0046551581
0.019814001 0.028824667 -0.0058502248
0.020428801 0.028388405 -0.0057828412
0.019259753 0.029177794 -0.0036965909
0.019262264 0.029176185 -0.0047466876
0.019793449 0.02883778 -0.0038820468
0.018520603 0.029648686 -0.0037054189
0.017545858 0.030254679 0.0032922917
0.016085079 0.031033793 0.0051603438
0.022558346 0.026737267 -0.002781091
0.022672346 0.026638182 -0.0038034928
0.023198193 0.026161784 -0.0026959481
0.022623016 0.026680389 -0.0016527399
0.022178648 0.027046235 -0.0026646084
0.022107588 0.027100744 -0.0035704814
0.022133622 0.027080799 -0.0017829902
0.022563605 0.032676056 -0.0069157849
0.021993417 0.032971866 -0.0065187453
0.022527961 0.032635458 -0.0057428945
0.022419848 0.032569617 -0.0079648476
0.022556417 0.031432152 -0.0082546752
0.039541621 0.021557482 -0.0069893962
0.03972964 0.021469982 -0.0077438839
0.038459156 0.021600189 -0.0074548977
0.039282981 0.022421839 -0.0067715594
0.038378339 0.020576255 -0.0072009009
0.039825723 0.021502638 -0.0057813404
0.03855304 0.021391818 -0.0072009047
0.043905009 0.023806984 -0.0058119842
0.043923985 0.023797134 -0.0067169764
0.042558093 0.023481237 -0.0082550608
0.044168215 0.02334311 -0.0057770503
0.042491723 0.022377418 -0.0082550589
0.036419611 0.021381186 -0.0052546253
0.03546989 0.021497065 -0.0074548405
0.036483858 0.021490926 -0.0072008646
0.036505308 0.020457374 -0.00745486
0.035464387 0.020498658 -0.00745484
0.034436245 0.020470055 -0.0070442474
0.033587545 0.019543068 -0.0082548875
0.03351403 0.021428348 -0.0077565052
0.033552468 0.020565631 -0.0080214636
0.023220563 -0.026186747 -0.0037091135
0.023650713 -0.02579266 0.00032246052
0.023252571 -0.026157493 0.00027842028
0.022627683 -0.026722403 -0.00061951485
0.022682955 -0.026672594 0.00022685187
0.022633461 -0.026718626 -0.0016879826
0.022176804 -0.027093163 -0.00066773145
0.022187782 -0.027084757 0.00038183606
0.023756703 -0.025695566 0.0022424774
0.023280228 -0.026132185 0.0022728785
0.023698254 -0.025749141 0.003215997
0.023691675 -0.025755143 0.0012773051
0.02423392 -0.02525829 0.0033048082
0.023737511 -0.025713205 0.0052163419
0.024236113 -0.02525633 0.006240475
0.032284357 -0.01349196 0.0041927816
0.032029964 -0.014106186 0.0054410598
0.032707904 -0.012469469 0.0052313181
0.021136981 -0.040094554 -0.0067327507
0.021159455 -0.040073786 -0.0056426688
0.020658126 -0.040282182 -0.0069128796
0.021630879 -0.039662391 -0.0077235112
0.021441899 -0.040345021 -0.0081482548
0.020518878 -0.040436216 -0.0078070983
0.024551334 -0.036542173 -0.0074546305
0.024535138 -0.035583179 -0.00745463
0.025537701 -0.036440503 -0.0072006541
0.024374664 -0.036585007 -0.0072006318
0.025562096 -0.037419785 -0.0057510333
0.02551733 -0.037370514 -0.0068832464
0.021554049 -0.036524791 -0.0072005773
0.022506082 -0.036496606 -0.0072005959
0.021535369 -0.03561715 -0.0074545722
0.021493148 -0.036501091 -0.0052543376
0.024530735 -0.043548707 -0.0057471367
0.023531593 -0.041576061 -0.0082546938
0.023846908 -0.043934088 -0.0058439965
0.022565925 -0.042454205 -0.0082546752
0.023815781 -0.043949913 -0.0067916391
0.02333568 -0.044211362 -0.0057588159
0.024545703 -0.043545716 -0.0068448223
0.024380179 -0.042607877 -0.0082512181
0.024473518 -0.043503374 -0.0077264616
0.023415133 -0.042440996 -0.008254692
0.023633616 -0.043521147 -0.0080911424
0.029488757 -0.034407366 -0.0057471716
0.028537739 -0.034561314 -0.00713835
0.029600546 -0.03359038 -0.0075321854
0.029481757 -0.034352183 -0.0068102255
0.02953361 -0.034391262 -0.0078920722
