# .PCD v0.7 - Point Cloud Data file format
VERSION 0.7
FIELDS x y z
SIZE 4 4 4
TYPE F F F
COUNT 1 1 1
WIDTH 1226
HEIGHT 1
VIEWPOINT 0 0 0 1 0 0 0
POINTS 1226
DATA ascii
0.0085937185 -0.023606405 -0.026839765
0.0084811347 -0.022099802 -0.028851558
0.0070798453 -0.027099803 -0.0248418
0.0083376421 -0.022362355 -0.027832393
0.0085936999 -0.023589902 -0.027803227
0.0083302036 -0.022333205 -0.028851189
-0.0019192869 -0.022099806 -0.015841193
-0.0019005493 -0.022099806 -0.016872663
-0.00084296474 -0.027099803 -0.014807242
0.0021185081 -0.0095882379 -0.015343751
0.0021077516 -0.014629646 -0.015343751
0.00011888849 -0.015615382 -0.015343714
0.0011160293 -0.015590629 -0.015343733
6.4737775e-05 -0.014594535 -0.015343709
0.0010760671 -0.014572415 -0.015343732
0.00306057 -0.027099803 -0.0078587802
0.0041246833 0.0014020146 -0.015343787
0.0071112802 -0.016652431 -0.015343845
0.0040623071 -0.015608798 -0.01534379
0.0050783418 -0.015617635 -0.015343804
0.0051113423 -0.014623495 -0.015343805
0.002031879 -0.020547466 -0.015343751
0.0021206886 -0.027099803 -0.012795367
0.0020952115 -0.021572892 -0.015343754
0.0021006344 -0.019544892 -0.01534375
-0.00092959212 -0.027099803 -0.01984865
-0.00089269545 -0.022099806 -0.022787068
-0.00087833643 -0.022099806 -0.02180982
-0.00090189104 -0.027099803 -0.018813256
-0.00089191156 -0.027099803 -0.020866793
-0.0018624209 -0.022099806 -0.022831624
-0.0019103665 -0.022099806 -0.021869542
0.003125658 -0.022099806 -0.020845788
0.0020921179 -0.027099803 -0.017821189
0.0020708982 -0.027099803 -0.018847091
0.0031141136 -0.027099803 -0.018826908
0.0031037387 -0.022099806 -0.021862131
0.0031193648 -0.027099803 -0.017839251
0.00309079 -0.022099806 -0.018851005
0.0020970153 -0.027099803 -0.016830392
0.0021016919 -0.027099803 -0.015884098
0.003092956 -0.027099803 -0.016839212
0.0030659107 -0.027099803 -0.015857071
9.0551679e-05 -0.020605864 -0.015343715
0.0010670921 -0.020662516 -0.01534373
0.00011931967 -0.021638636 -0.015343714
0.00010635213 -0.022099806 -0.016846174
0.00010949746 -0.027099803 -0.014846944
0.0010811792 -0.022099806 -0.016836789
0.00106998 -0.027099803 -0.013878602
0.0050579333 -0.022099806 -0.024851825
0.0051308335 -0.022099806 -0.025867516
0.0040911627 -0.027099803 -0.021837384
0.0050995932 -0.027099803 -0.021859223
0.005120574 -0.022099806 -0.023906561
0.0041003069 -0.027099803 -0.020837553
0.0060910555 -0.022099806 -0.021797519
0.0051019238 -0.027099803 -0.01989584
0.0060712784 -0.022099806 -0.020877885
0.0041185976 -0.027099803 -0.019821551
0.0040731179 -0.022099806 -0.021835988
0.0060830945 -0.027099803 -0.020864405
0.0061063562 -0.022099806 -0.024846409
0.0060732192 -0.027099803 -0.022844009
0.0060979733 -0.022099806 -0.025825953
0.0085938154 -0.025553131 -0.02182949
0.0085937958 -0.024598982 -0.022818986
0.0085938545 -0.024598209 -0.019805988
0.0083437273 -0.022333963 -0.020837404
0.0083319182 -0.026856769 -0.018829981
0.0085938731 -0.024593048 -0.018830584
0.0083513632 -0.022347111 -0.019828819
0.0085938731 -0.023595121 -0.018825853
0.0085938526 -0.023614177 -0.019863207
0.0085938917 -0.025617199 -0.017837971
0.008362365 -0.026835386 -0.017841037
0.0085938731 -0.025558038 -0.018833185
0.0083504813 -0.022352075 -0.022835029
0.0085937958 -0.023596523 -0.022827433
0.0085938349 -0.025623148 -0.020811778
0.0085938144 -0.024618722 -0.021880964
0.0083485749 -0.02684808 -0.019861298
0.0083517963 -0.026819877 -0.020889239
0.0083372416 -0.022314055 -0.021845018
0.0071109356 -0.027099803 -0.019869769
0.0071158302 -0.027099803 -0.018838337
0.0085938144 -0.023599591 -0.021842733
0.0085938349 -0.024601921 -0.020790324
0.008593834 -0.023594052 -0.020829873
0.0085945465 -0.023596212 0.016152462
0.0083591202 -0.02238513 0.016168237
0.0070821871 -0.022099806 0.017145755
0.0070750513 -0.027099803 0.01413697
0.0070513561 -0.027099803 0.010158008
0.0085944692 -0.019567264 0.012157113
0.0085944496 -0.02360503 0.011130227
0.0083203008 -0.026847919 0.010161094
0.0085944505 -0.024613818 0.011151389
0.0085944701 -0.021568816 0.012199383
0.0085944692 -0.020669136 0.012121012
0.008594471 -0.015524132 0.012247181
0.0071095186 -0.027099803 0.0091536772
0.0085944887 -0.014604963 0.013159443
0.0085944887 -0.015556843 0.013176732
0.0085944692 -0.017599372 0.012140845
0.0085944701 -0.016573066 0.012173984
0.0083645275 -0.011603277 0.014389195
0.0083372621 -0.010641167 0.014398452
0.0060653477 -0.027099803 0.010120511
0.0085943732 -0.02458876 0.0071812421
0.0082913851 -0.02688214 0.0061775735
0.0085943732 -0.023667173 0.0071693701
0.0085943732 -0.025543068 0.0071762055
0.0085943928 -0.021579465 0.0081748804
0.0085943919 -0.022587791 0.0081473365
0.0082898326 -0.026881592 0.0071447035
0.008594431 -0.024613723 0.010145789
0.0083350232 -0.026845267 0.0091443518
0.0085944301 -0.025651082 0.010086163
0.0085944319 -0.02361281 0.010185515
0.0085944496 -0.022639219 0.011141846
0.0085944505 -0.021558324 0.011192621
0.0085943732 -0.016594799 0.0071669263
0.0085943742 -0.017632848 0.0072089764
0.0085943919 -0.013629107 0.0081463642
0.0085943742 -0.014603296 0.0072010676
0.0085943732 -0.013668125 0.0071558622
0.0085943732 -0.015613529 0.0071823746
0.0085944114 -0.0075795036 0.0091587482
0.0085944114 -0.0085629746 0.0091567291
0.0085944124 -0.0056297034 0.0091792624
0.0050941673 -0.027099803 0.0051603969
0.0085944124 -0.0066266581 0.009209441
0.008594431 -0.0085903388 0.010161011
0.008594431 -0.0096028764 0.010172425
0.0060632401 -0.027099803 0.0061728666
0.0085944505 -0.0045938864 0.011160706
0.0085944505 -0.005576387 0.011156798
0.0085944319 -0.0075910278 0.010212989
0.0040783165 -0.027099803 0.0061615389
0.0085944887 0.0053876676 0.013148576
0.0050848983 -0.027099803 0.0061493423
0.0085944505 0.0043877885 0.011159868
0.0085944887 0.004387781 0.013150182
0.0040866253 -0.027099803 0.0071437638
0.0041015265 -0.027099803 0.0051465803
0.0031442682 -0.027099803 0.0061898092
0.0030907795 -0.027099803 0.0051508839
0.0085943164 -0.021623941 0.004192913
0.0085943155 -0.022561105 0.0041768644
0.0085943155 -0.020588027 0.0041623698
0.0085943537 -0.015607838 0.0061422898
0.0085943537 -0.016605545 0.0061422787
0.0085943351 -0.022588693 0.005162308
0.0085943546 -0.020620266 0.0061798026
0.0085943732 -0.0066100713 0.0071728304
0.0050903535 -0.027099803 0.0041612787
0.0085943723 -0.0075831674 0.0071317377
0.0085943732 -0.0096358377 0.0071686772
0.0085943928 -0.0055836625 0.0081773987
0.0085943928 -0.0065975972 0.008161555
0.0085943723 -0.0085915532 0.0071308883
0.0060887835 -0.027099803 0.0051865885
0.0085943732 -0.010606088 0.0071641658
0.0085942959 -0.021669209 0.0031405753
0.0085942773 -0.023573138 0.0021750545
0.0085946238 -0.024643753 0.020157624
0.0085946228 -0.023565525 0.020145502
0.0085946424 -0.024591116 0.021142403
0.008594661 -0.023575505 0.022122914
0.0060504149 -0.027099803 0.016185114
0.0070930454 -0.022099806 0.019196313
0.0070704576 -0.027099803 0.016132327
0.0070991474 -0.022099806 0.018195648
0.0061110999 -0.022099806 0.019183662
0.0085946042 -0.023585828 0.019175854
0.0085945847 -0.025580948 0.018147197
0.008351705 -0.022333171 0.020171272
0.0085946042 -0.024593621 0.01913178
0.0083483979 -0.022347489 0.019184379
0.008594567 -0.025643645 0.01720592
0.00831901 -0.026870809 0.016132042
0.0083430922 -0.026845492 0.017136801
0.0085945847 -0.023586886 0.018141631
0.0085945847 -0.024617678 0.018152621
0.0085942959 -0.019574184 0.0031466177
0.0071377731 -0.027099803 0.0031521926
0.0085942969 -0.020604445 0.00318121
0.0085942587 -0.0206235 0.0011890563
0.0085942568 -0.021644337 0.0011126149
0.0085942578 -0.019592514 0.0011740549
0.0085942578 -0.018620856 0.0011632742
0.0085942578 -0.017587682 0.0011557157
0.0085942587 -0.01659471 0.0011922563
-0.0074052475 0.0044697337 0.011170667
0.00206871 -0.027099803 0.0041597309
0.0020562166 -0.027099803 0.0031498841
-0.0039171851 0.0070461072 0.0034531981
7.4574556e-05 -0.027099803 0.00015348666
-0.0029483284 0.0060900152 0.0011683988
-0.00090910308 -0.027099803 0.001162332
-0.0074054031 -0.024641739 0.0031966052
-0.0074054031 -0.025594439 0.0032014181
-0.0019420559 -0.027099803 0.0042063659
-0.00092771469 -0.027099803 0.0041397843
-0.0038795522 0.0095983893 0.0058084745
-0.0018902651 -0.027099803 0.0031407138
-0.0019037939 -0.027099803 0.0021904183
-0.007405444 -0.015620428 0.0011562323
-0.0074054427 -0.016609371 0.0011389734
-0.0074054389 -0.014578648 0.0011455633
-0.0074054631 -0.015546277 0.00016836019
-0.0074053803 -0.015601067 0.0041749035
-0.0074054445 -0.018605378 0.0011252757
-0.0074054408 -0.0046432018 0.0011408546
-0.0074054385 -0.0066135358 0.0011578193
-0.0074054459 -0.0075896885 0.0011508866
-0.007405444 -0.0055899788 0.0011707047
-0.0039210082 -0.027099803 0.0011338139
-0.0074054045 -0.0046480298 0.0031236059
-0.0074054035 -0.0055412035 0.0031630371
-0.0074054054 -0.0075888727 0.0031707746
-0.0074053621 0.0023995263 0.0051205466
-0.0074053565 0.0014358347 0.0051171677
-0.0074053616 0.0013814343 0.0051478562
-0.0074053393 0.0070594549 0.0060304985
-0.0074053635 0.0044344291 0.0051461165
-0.0074053616 0.0034404264 0.0051533249
-0.0028650882 -0.027099803 0.0031718682
-0.0028709366 -0.027099803 0.0021642486
-0.0074053826 -0.0095948707 0.0041721398
-0.0074051311 -0.026593024 0.017131446
-0.0074051153 -0.024692249 0.018147979
-0.0058879042 -0.022099806 0.018152945
-0.0059104469 -0.022099806 0.019162808
-0.0048476318 -0.022099806 0.019116165
-0.0039269282 -0.022099806 0.02022578
-0.0039124349 -0.022099806 0.019152163
-0.0028343163 -0.027099803 0.017141225
-0.0038997605 -0.022099806 0.021135164
-0.0039023729 -0.027099803 0.017118875
-0.0069503156 -0.027099803 0.018136971
-0.0074050617 -0.023310006 0.020433238
-0.0074050976 -0.022577457 0.019157942
-0.001908529 -0.022099806 0.020115169
-0.0019163447 -0.027099803 0.017153472
-0.00089491974 -0.027099803 0.016134603
-0.0009039432 -0.022099806 0.01816576
-0.0019556256 -0.022099806 0.019119134
-0.001917534 -0.022099806 0.018168917
-0.0018554814 -0.027099803 0.016124135
-0.0041769324 -0.022099802 0.015255597
-0.0038725773 -0.022099806 0.015159429
-0.0074051144 -0.026630895 0.018179677
-0.0074052517 -0.024592578 0.01114842
-0.0068963631 -0.027099803 0.011176066
-0.0074052322 -0.023592392 0.012165613
-0.0074052284 -0.022611132 0.012162652
7.2385774e-05 -0.022099806 0.015138052
0.0011279469 -0.022099806 0.016167004
0.001098805 -0.027099803 0.01317289
0.0010812803 -0.027099803 0.014151647
7.2711242e-05 -0.022099806 0.016177008
-0.00093327492 -0.022099806 0.015151102
-0.0008534193 -0.022099806 0.016116185
-0.0029046142 -0.018585503 0.014655749
-0.00086914405 -0.022099806 0.01719784
5.5975528e-05 -0.022099806 0.017086854
7.2512696e-05 -0.027099803 0.015103073
-0.00088740268 -0.027099803 0.01514431
4.4656554e-05 -0.027099803 0.014141557
-0.00089514558 -0.027099803 0.014128645
-0.0039131297 -0.021654813 0.014655769
-0.0028790529 -0.027099803 0.01614039
0.0020734821 -0.0096130595 0.01465565
0.002065398 -0.027099803 0.015123183
0.0011156559 -0.027099803 0.015124762
0.0021419022 -0.022099806 0.017171323
0.0030753228 -0.022099806 0.017153013
0.002080373 -0.027099803 0.014131422
0.00310645 -0.022099806 0.0181979
0.0031097808 -0.022099806 0.016139526
0.0021124589 -0.020626912 0.014655656
0.0020595097 -0.021582561 0.01465565
0.005092964 -0.027099803 0.015162017
0.0060750172 -0.022099806 0.017118366
0.0061167306 -0.027099803 0.015146906
0.0061041103 -0.022099806 0.018119646
0.0041530658 -0.027099803 0.014170366
0.0050810552 -0.022099806 0.017207149
0.0041140374 -0.01550694 0.014655648
0.0040311124 -0.014604111 0.01465565
0.0040896754 -0.014585887 0.014655618
-0.0039088456 -0.027099803 0.019102
-0.0049249348 -0.022099806 0.02217705
-0.0018881116 -0.023600057 0.031655475
-0.0019266971 -0.027099803 0.029150497
-0.0018890763 -0.024614731 0.031655468
-0.0018831895 -0.027099803 0.02817153
-0.00086585479 -0.023528092 0.031655453
4.1390977e-05 -0.027099803 0.028196078
-0.00092977408 -0.027099803 0.028117694
-0.0029179326 -0.027099803 0.024098799
-0.0029277189 -0.027099803 0.025159461
-0.00090004597 -0.022099806 0.030145347
-0.00092539337 -0.022099806 0.031157995
-0.0018402924 -0.022099806 0.029116491
0.0030812565 -0.027099803 0.028172411
0.0041241157 -0.023570152 0.031655353
0.0040737926 -0.027099803 0.029167838
0.0040532863 -0.027099803 0.028108668
0.004084311 -0.022599265 0.031655338
0.0051403567 -0.022099806 0.027130708
0.0030410562 -0.022099806 0.02618091
9.0322465e-05 -0.022099806 0.018124675
0.0011108817 -0.022099806 0.018133486
0.0021277617 -0.022099806 0.018095922
0.00012634807 -0.022099806 0.028183224
0.001091858 -0.022099806 0.028144518
-0.0029266144 -0.022099806 0.02815187
-0.0018784582 -0.027099803 0.025143676
0.0071357391 -0.022099806 0.025187304
0.0051353294 -0.022122862 0.031128753
0.0050752428 -0.022591366 0.031655319
0.0051081493 -0.027099803 0.025166508
0.0050862418 -0.022099806 0.030181386
0.0021218231 -0.027099803 0.028114419
0.0040985895 -0.026581174 0.031655353
0.0030748076 -0.027069984 0.031239163
0.0051170341 -0.024578111 0.031655349
0.0040888977 -0.027099803 0.030151581
0.0081009716 -0.026565287 0.031655274
0.0060803797 -0.022099806 0.029153956
0.0060626338 -0.027099803 0.026149899
0.0085947011 -0.02558882 0.024169128
0.008329425 -0.026871705 0.023135372
0.0085947197 -0.023571245 0.025139384
0.0085947197 -0.024620721 0.025174893
0.0083679631 -0.026858168 0.024164485
0.0085948156 -0.025571508 0.030150171
0.00856023 -0.023589011 0.031207789
0.0085835578 -0.024610393 0.031173196
0.0083413031 -0.026865469 0.029166915
0.0085948147 -0.024599861 0.03010718
0.008594797 -0.02458312 0.029155141
0.0085948156 -0.023588998 0.030154198
0.0083458778 -0.026852326 0.028143618
0.0071098558 -0.022099806 0.029152101
0.0061420901 -0.027099803 0.025188308
0.0085944887 -0.025604419 0.013148397
0.0085945083 -0.023601227 0.014159168
0.0083198985 -0.026866559 0.013152367
0.0083310846 -0.026858352 0.012161097
0.0085944887 -0.02458301 0.013133951
0.0085945074 -0.022589678 0.014141373
0.0085939299 -0.023618022 -0.015843138
0.0083714938 -0.022385152 -0.016829791
0.008593969 -0.023595735 -0.013852522
0.008364249 -0.026826033 -0.012825146
0.0085939495 -0.023622088 -0.01485782
0.008593969 -0.025569048 -0.013833147
0.0083423061 -0.026850054 -0.013844416
0.0085939504 -0.024579788 -0.014816785
0.0085939681 -0.024604961 -0.013871691
0.0085939495 -0.022581272 -0.014867161
0.0083588585 -0.022359684 -0.015821384
0.0070926086 -0.027099803 -0.012851154
0.006111579 -0.017597193 -0.015343827
0.005079296 -0.02166477 -0.015343808
0.0050901393 -0.020603055 -0.015343808
0.0051507424 -0.019614592 -0.015343807
0.0077857138 -0.022099802 -0.015753904
0.0071018585 -0.027099803 -0.01478761
0.0071033635 -0.027099803 -0.013837271
0.0050690887 -0.027099803 -0.013794977
0.0057641398 -0.022099802 -0.017790714
0.0051165186 -0.027099803 -0.01588802
0.0055067907 -0.022099802 -0.017987372
0.0050536827 -0.022099806 -0.017889278
0.0061010732 -0.022099806 -0.016865645
0.0060672108 -0.022099802 -0.016770683
0.0050692144 -0.027099803 -0.014827205
0.0061386698 -0.022099806 -0.017883675
0.0060707736 -0.027099803 -0.014836061
0.008594064 -0.023594441 -0.0088988002
0.0085940463 -0.021636579 -0.0098212017
0.0070854793 -0.026560755 0.031655286
0.007149809 -0.027099803 0.03115336
-0.00092753698 -0.024571804 0.031655449
-0.0008866564 -0.027099803 0.029143305
0.00012038842 -0.027099803 0.029138969
0.00010828148 -0.024619989 0.031655427
-0.00090815598 -0.027099803 0.03013525
0.00013672681 -0.027099803 0.030132854
-0.0029098457 -0.022615012 0.031655479
-0.0029234558 -0.023608677 0.031655494
-0.0038901281 -0.027099803 0.030141765
-0.0039350763 -0.02555131 0.031655498
-0.0029098997 -0.027099803 0.030109864
-0.0048931171 -0.025620788 0.031655539
-0.0049267858 -0.027099803 0.031116303
-0.006958921 -0.022099802 0.029146142
-0.0074050357 -0.025615174 0.022170527
-0.0074050608 -0.026628276 0.021159181
-0.0059282547 -0.022099806 0.022136772
0.008593969 -0.0045946036 -0.013849244
0.0085940463 -0.0066304449 -0.0098254038
0.0085940463 -0.0075750146 -0.0098417075
0.0085941227 -0.0075819287 -0.0058451523
0.0050915773 -0.027099803 -0.0038493611
0.0085941227 -0.0066474807 -0.0058499505
0.0085941227 -0.0086142272 -0.0058633168
0.0060842717 -0.027099803 -0.00081324129
0.0083446838 -0.026869468 0.00017047462
0.0085942196 -0.024590103 -0.00084073708
0.0085942382 -0.024613131 0.00014608083
0.0085942186 -0.023612436 -0.00086222414
0.0083055347 -0.026845008 -0.00087959296
0.0085942196 -0.02560012 -0.00083834922
0.0085942382 -0.025576742 0.00014015027
0.0085942578 -0.023558157 0.0011796241
0.0085942764 -0.022564873 0.0021483372
0.0085942578 -0.022618607 0.0011829507
0.0085942391 -0.023591245 0.00017771166
0.0085942578 -0.0245698 0.0011472482
0.0083268192 -0.026858529 0.0011754161
0.0085942009 -0.020570775 -0.0018054568
0.0085942 -0.019657077 -0.0018424669
0.0085942 -0.021634113 -0.0018548607
0.007078052 -0.027099803 -0.00084428035
0.0085942196 -0.021589642 -0.0008383902
0.0085942578 0.0054229312 0.001145531
0.0081924554 0.0060721673 0.0011845751
0.0040604402 -0.027099803 0.0001471143
0.0085942578 0.004412327 0.0011582376
0.0085942969 0.0044138767 0.0031912494
0.0040806667 -0.027099803 0.001179033
0.0085942959 0.0033982003 0.0031587321
0.0040516811 -0.027099803 0.0020955827
0.0051443777 -0.027099803 0.0021040104
0.0085942578 -0.008597035 0.0011655241
0.0085942578 -0.0076386351 0.0011556933
0.0085942578 -0.0096599516 0.0011399393
0.006119357 -0.027099803 0.0011091124
0.0085940836 -0.018590182 -0.0078794891
0.0085940845 -0.01763125 -0.0078362003
0.008594065 -0.015605006 -0.0088372631
0.0085941032 -0.02453143 -0.0068618688
0.0083246231 -0.026885383 -0.0068404735
0.0085940836 -0.020629756 -0.0078756502
0.0085940845 -0.021631563 -0.0078463443
0.0085940845 -0.019620536 -0.0078499522
0.0085941032 -0.022579327 -0.0068753003
0.0085940845 -0.023572672 -0.0078267064
0.0085940845 -0.024580218 -0.0078179426
0.0085940268 -0.014612763 -0.010816347
0.0085941032 -0.019627407 -0.0068471804
0.007069699 -0.027099803 -0.0058609573
0.0085941041 -0.018596279 -0.006823909
0.0085941041 -0.020639515 -0.0068321847
0.0085941236 -0.022604713 -0.0058102882
0.0085941236 -0.021605406 -0.0057979557
0.0085941432 -0.017599881 -0.0048098434
0.0085941423 -0.016546385 -0.0048498316
0.0085941227 -0.01460625 -0.0058444017
0.0085941227 -0.015611864 -0.0058526383
0.0085941413 -0.018612718 -0.0048680911
0.007104822 -0.027099803 -0.0038218407
0.0085941618 -0.021627635 -0.0038333579
0.0085941618 -0.020571487 -0.0038101387
0.0085941805 -0.023619983 -0.0028324961
0.0085941805 -0.016618716 -0.0028449718
0.0085940072 -0.0065615196 -0.011868185
0.0085940082 0.005417794 -0.01181131
0.0040855352 -0.027099803 -0.0058437842
0.0085940082 0.0034080052 -0.011789421
0.0085940063 0.0043707751 -0.011886138
0.0085940659 -0.0075989589 -0.0088059418
0.008594065 -0.0065921582 -0.0088546081
0.0060835271 -0.027099803 -0.0058350856
0.005110397 -0.027099803 -0.005834409
0.0083500631 0.0024292318 -0.015098934
0.0085939877 -0.006585313 -0.012843827
0.0050799805 -0.027099803 -0.0078427223
0.0085939886 -0.0075964388 -0.012832065
0.0085940072 -0.014577178 -0.011846163
0.0085940072 -0.01360866 -0.011841689
0.0085940072 -0.012580419 -0.011839095
0.0085939877 -0.0096284933 -0.012886493
0.0085939886 -0.0085965209 -0.012830834
0.0085940072 -0.011597373 -0.011844239
-0.00092402822 -0.0076423641 0.014655707
0.0020470372 -0.019611416 0.014655654
-0.00087947276 -0.009608224 0.014655706
-0.00091534847 -0.0085716043 0.014655707
-0.0018645658 -0.017569238 0.01465573
-0.0074052084 0.0054021217 0.01320198
-0.0074052135 0.0044104084 0.013139903
-0.00092723843 -0.014667581 0.014655711
0.0011222842 -0.0055760536 0.014655668
0.0020822643 -0.0036190285 0.01465565
0.0020999459 -0.0045503732 0.014655657
0.0083745951 -0.0066049304 0.014444729
0.0083483439 -0.0076132361 0.014394662
0.0085944887 -0.010530906 0.013143629
0.0061106556 -0.027099803 0.0091916863
0.0061268285 -0.012631412 0.014655575
0.0051248386 -0.027099803 0.010170618
0.007098279 -0.027099803 0.012122381
0.0081572793 -0.021654431 0.014655573
0.0078393426 -0.01985408 0.01465558
0.0041322801 -0.022099806 0.015151072
0.005085574 -0.018601106 0.014655596
0.0051074335 -0.013623302 0.014655632
0.0041267858 -0.015581554 0.014655611
0.0050649056 -0.0135762 0.014655596
0.0062723858 -0.015486894 0.01465561
0.0040652072 -0.0096004754 0.014655619
0.0041627348 -0.010590356 0.014655617
0.0040737358 -0.0065336786 0.014655615
0.0031118016 -0.027099803 0.0091957785
0.0040923962 -0.0056337714 0.014655611
0.0040382012 -0.0045992061 0.014655612
0.0034334192 -0.012768637 0.014655665
0.0021181344 -0.011604717 0.014655652
0.00340594 -0.011575357 0.014655665
0.0030723081 -0.01158535 0.014655634
0.0021084987 -0.010576468 0.014655649
0.0051191561 -0.011597212 0.014655591
0.0051114839 -0.01058637 0.014655598
0.0040685944 -0.027099803 0.010132906
0.0049809162 -0.011495018 0.014655635
0.0085944487 -0.013602303 0.011099025
0.0085944505 -0.012586198 0.011180107
0.0085944505 -0.014539082 0.011187957
0.008594431 -0.016624145 0.01016272
0.0085944301 -0.015572879 0.01012197
0.0085944692 -0.0066218711 0.012146686
0.0085944505 -0.0076198112 0.011186176
0.0060573942 -0.027099803 0.0071797338
0.0085944496 -0.006580174 0.011124318
-0.0074053155 0.0052316524 0.0072676698
-0.007405323 -0.011688174 0.0068726549
-0.0074051921 -0.0075779315 0.014161097
-0.0074051949 -0.0085825697 0.014104768
-0.0074052108 -0.010617282 0.013175043
-0.0059469491 -0.019612076 0.014655801
-0.0074052364 -0.024610311 0.012144435
0.0085943155 -0.011570886 0.0041516297
0.0085943155 -0.010616962 0.0041520246
0.0085943155 -0.012575999 0.0041466644
0.0060990485 -0.027099803 0.0031890364
-0.0018894476 -0.027099803 -0.0058580954
-0.00090866798 -0.027099803 -0.0058921734
-0.0018813645 -0.027099803 -0.0068603093
-0.00094776816 -0.027099803 -0.0048392587
-0.0074055558 -0.026558684 -0.0048459424
-0.007405635 -0.021599805 -0.0088503622
-0.0074056154 -0.023580434 -0.0078427689
-0.007405635 -0.020572087 -0.0088531412
-0.0074056755 -0.024614867 -0.01085206
-0.00740575 0.0083953328 -0.014826616
-0.0028997608 -0.027099803 -0.0079158917
-0.0074057295 0.0053871758 -0.013853001
-0.0074057309 0.0044065379 -0.013842988
-0.007405675 -0.014605758 -0.010843449
-0.007405682 -0.012542512 -0.0116872
-0.00089050981 0.0013902725 -0.015343697
-0.00090964994 0.0023830996 -0.01534369
-0.0059203892 -0.010596082 -0.015343596
-0.0058985483 -0.0086272135 -0.015343598
-0.0048651448 -0.014565108 -0.01534362
-0.0028939929 -0.017569713 -0.015343654
-0.0029134226 -0.010575859 -0.015343654
-0.0019081547 -0.010637475 -0.015343672
-0.002882849 -0.0045683403 -0.015343654
-0.0019092034 -0.027099803 -0.0088660959
-0.0028788527 -0.0055927467 -0.015343658
-0.0029703374 -0.003633721 -0.015343653
0.0021225223 -0.0066394974 -0.015343753
0.0021687739 -0.0046014041 -0.01534375
0.0020554564 -0.0056084357 -0.015343747
0.0020620062 -0.0036108794 -0.015343748
0.00013220987 -0.01059307 -0.015343715
0.0001000305 -0.0095634554 -0.015343714
0.00011202849 -0.01160622 -0.015343714
0.0011009111 -0.009631142 -0.015343729
0.0011082339 -0.01062558 -0.015343726
-0.00092742761 -0.0096168872 -0.015343688
-0.00096020306 -0.010611683 -0.015343689
-0.00092000049 -0.008614108 -0.015343692
-0.0074058874 -0.022584451 -0.021873463
-0.0074058692 -0.025644295 -0.020830132
-0.0074058482 -0.026612209 -0.019842787
-0.0074058771 -0.024086814 -0.021904441
-0.0074059037 -0.022584314 -0.022797287
-0.0074058855 -0.023591755 -0.021868538
-0.0068745073 -0.027099803 -0.019829692
-0.0074058548 -0.024295507 -0.020751255
-0.0068765911 -0.027099803 -0.018831184
-0.0074058487 -0.025569048 -0.01985452
-0.0074058683 -0.024537552 -0.020863861
-0.0074058576 -0.024032859 -0.020899497
-0.007405865 -0.02359931 -0.02089332
-0.0048970818 -0.022099806 -0.022857537
-0.0049231844 -0.022099806 -0.021827521
-0.0038998013 -0.027099803 -0.019906787
-0.0039464771 -0.027099803 -0.020844048
-0.0049034767 -0.022099806 -0.023816707
-0.0058890977 -0.022099806 -0.022833455
-0.0059080189 -0.022099806 -0.023838026
-0.0048866444 -0.027099803 -0.020828089
-0.0049164263 -0.027099803 -0.019874232
-0.0059290673 -0.027099803 -0.020848643
-0.0058982195 -0.027099803 -0.019838683
-0.0074058678 -0.022596017 -0.020839501
-0.0074058454 -0.024581235 -0.019874865
-0.0074057681 -0.024622371 -0.015861785
-0.0074057886 -0.022622686 -0.016843989
-0.0074057742 -0.02360227 -0.015888965
-0.0069570057 -0.027099803 -0.014859623
-0.0074058031 -0.025611412 -0.017788045
-0.0074057975 -0.024284828 -0.017672256
-0.0074058287 -0.022629248 -0.018824559
-0.0069041396 -0.027099803 -0.015827376
-0.0074057928 -0.0256394 -0.016861096
-0.0074058068 -0.023608861 -0.017776407
-0.0074057961 -0.023915023 -0.017711511
-0.0074056247 -0.02379657 -0.0088117206
-0.0074056252 -0.024472397 -0.0087420251
-0.0074056331 -0.024636872 -0.0088418871
-0.0074056382 -0.023552902 -0.0088219391
-0.0069218804 -0.027099803 -0.0078518456
-0.0074056559 -0.025597783 -0.0098443655
-0.0074056769 -0.025590489 -0.010837183
-0.0074056946 -0.026615828 -0.011844242
-0.0074056732 -0.02661545 -0.010925625
-0.0058992989 -0.020596193 -0.015343596
-0.0059040785 -0.021624153 -0.015343594
-0.0058496743 -0.022099806 -0.015808722
-0.0049251774 -0.027099803 -0.01387469
-0.0049152016 -0.020616654 -0.015343613
-0.0049616196 -0.021611514 -0.015343614
-0.0039176769 -0.027099803 -0.013805129
-0.0039525931 -0.022099806 -0.015830038
-0.0059301737 -0.014560734 -0.015343595
-0.005888076 -0.016607415 -0.015343598
-0.0058793076 -0.017594812 -0.015343596
0.0011370757 -0.027099803 -0.025880603
0.0010735216 -0.022099806 -0.029821239
9.8318211e-05 -0.022099806 -0.029883493
-0.00091722759 -0.027099803 -0.024802452
-0.00092740741 -0.022099806 -0.027839128
-0.0019133087 -0.022099806 -0.028800199
-0.0018900143 -0.027099803 -0.024844427
-0.0019056597 -0.022099806 -0.027819237
-0.00087798462 -0.027099803 -0.023805955
-0.00090281473 -0.022361394 -0.032107018
7.808947e-05 -0.027099803 -0.0288612
-0.0018605632 -0.027099803 -0.025842948
-0.00095087616 -0.022099806 -0.029811885
-0.00086313387 -0.027099803 -0.02587546
-0.00087876909 -0.027099803 -0.028852146
-0.0038994323 -0.022099806 -0.02584794
-0.0039359489 -0.027099803 -0.02386339
-0.0049003582 -0.022099806 -0.026853433
-0.0048709908 -0.022099806 -0.027865069
-0.0038715887 -0.022099806 -0.026890229
-0.0039103632 -0.022099806 -0.027842253
-0.0039089001 -0.027099803 -0.024892159
-0.0049381903 -0.027099803 -0.023860402
-0.0058755181 -0.022099806 -0.025822254
-0.0069192578 -0.027099043 -0.023827748
-0.0074060392 -0.025619987 -0.029842045
-0.0074060587 -0.022594344 -0.030852929
-0.0058883848 -0.022099806 -0.030829368
-0.0058580562 -0.027099803 -0.027866023
-0.0049112397 -0.027099803 -0.027860973
-0.0049156491 -0.027099803 -0.02683454
-0.007406028 -0.023298562 -0.029748781
-0.006886797 -0.025533654 -0.032343235
-0.0074060787 -0.026567418 -0.031799108
-0.0068931901 -0.026816061 -0.032112762
-0.007406061 -0.02564295 -0.030881681
-0.0074060434 -0.026606748 -0.029874986
-0.006949015 -0.027099803 -0.028861659
-0.007406082 -0.024623223 -0.031872146
0.0050159842 -0.027099803 -0.03081787
0.0051014968 -0.027099803 -0.029865403
0.0061284145 -0.024561251 -0.032343488
0.0060889469 -0.025578748 -0.032343484
0.0050747115 -0.024609555 -0.032343466
0.0051121572 -0.025608594 -0.032343466
0.0050857421 -0.026824929 -0.032120273
0.004108862 -0.027099803 -0.030860502
0.0070922626 -0.022099806 -0.029835483
0.0075252289 -0.022099802 -0.030157138
0.0060954322 -0.027099803 -0.025816483
0.0060946448 -0.022099806 -0.03084497
0.0060517429 -0.022099806 -0.029881068
0.0050977296 -0.027099803 -0.026798092
0.0060989242 -0.022340227 -0.032106433
0.0060672197 -0.027099803 -0.028835462
0.0061662989 -0.022099802 -0.0320278
0.0050468273 -0.027099803 -0.028836278
0.0050632781 -0.027099803 -0.027826965
0.0050807111 -0.022099806 -0.028878389
0.005050147 -0.027099803 -0.024825113
0.0041548484 -0.027099803 -0.024852119
0.0051270612 -0.027099803 -0.025882546
0.0050865514 -0.022099806 -0.029834762
0.0040762867 -0.027099803 -0.025818588
0.0085937949 -0.025636222 -0.022861045
0.0083810845 -0.026841469 -0.021847269
0.0083795097 -0.026840176 0.030166913
0.0083556334 -0.026829695 -0.030836828
0.0083793588 -0.026824685 0.0021883019
0.0083683087 -0.026841026 0.031136537
0.008355842 -0.022380406 -0.029874699
0.0085936412 -0.02460359 -0.030845756
0.0083642714 -0.026830722 -0.029833399
0.0083410516 -0.026856957 -0.02882961
0.0085936412 -0.025604442 -0.030855348
0.0083638728 -0.023603706 -0.032052677
0.0082348073 -0.02248021 -0.032039084
0.0085937381 -0.025606703 -0.025839755
0.0085937176 -0.024603454 -0.026887316
0.0083513726 -0.02685789 -0.025829598
0.0083057713 -0.026857719 -0.024831658
0.0085937576 -0.025609795 -0.024809448
0.0010906849 -0.01961031 -0.015343731
0.0011210268 -0.027099803 -0.012784268
9.0128866e-05 -0.019621182 -0.015343712
-0.0018602493 -0.014601802 -0.015343676
-0.00089236244 -0.022099806 -0.015842063
6.7931287e-05 -0.027099803 -0.013840689
-0.000863339 -0.027099803 -0.013843795
-0.00088745513 -0.022099806 -0.016890479
0.0050611719 -0.013583484 -0.01534381
0.0040990463 -0.014630603 -0.015343789
0.0021262714 -0.010610653 -0.015343753
0.006062347 0.0023941563 -0.015343826
0.0051148389 -0.0065506622 -0.015343809
0.0085940445 -0.023573427 -0.0098934034
0.0085940277 -0.025622301 -0.010805392
0.0085940268 -0.024559608 -0.01082393
0.0040491931 -0.027099803 -0.011873332
0.0083478307 -0.014606731 -0.015098614
0.0040963474 -0.022099806 -0.020863283
0.0041063726 -0.022099806 -0.019849848
0.0051160469 -0.022099806 -0.019846275
0.0040660668 -0.027099803 -0.016806725
0.008594566 -0.023602262 0.017189205
0.0083243363 -0.022327039 0.017188018
0.0071403538 -0.027099803 0.015166186
0.0083493944 -0.022373326 0.018177664
0.0085945651 -0.024588151 0.017125884
0.0085945465 -0.025576452 0.016167333
0.0085945465 -0.024634505 0.016155509
0.0085943155 -0.018556563 0.0041758996
0.0085943351 -0.015570736 0.0051608663
0.0060700048 -0.027099803 0.0041443584
0.0085943546 -0.019594168 0.0061801788
0.0085943537 -0.017614204 0.0061433366
0.0070392373 -0.027099803 0.0051677241
0.0085942782 -0.02062927 0.0022119156
0.0085942773 -0.021607246 0.0021831568
0.0085942773 -0.019649969 0.0021683343
0.0085942764 -0.018573606 0.0021212066
0.0083372956 -0.022359688 0.021173552
0.0085946424 -0.023603389 0.021129061
0.0083794883 -0.022392705 0.022166124
0.0070850295 -0.022099806 0.020171367
0.0060694194 -0.027099803 0.017168624
0.0071151508 -0.027099803 0.017172704
0.0071090171 -0.022099806 0.022170817
0.0071061165 -0.022099806 0.023134189
0.0070818346 -0.027099803 0.020159245
0.0060669323 -0.027099803 0.0021747716
0.0085943155 -0.013608451 0.0041621947
0.0085942959 -0.017608885 0.0031556736
0.0085943155 -0.01563926 0.0041540475
0.0085943155 -0.014648043 0.0041522481
0.0085942959 -0.016642392 0.0031621109
0.0085942959 -0.018591538 0.0031523283
0.0085943146 -0.016589679 0.0041323369
-0.0074053169 0.00448801 0.007271402
-0.0029274125 -0.027099803 0.0051749269
-0.00091985613 0.007060945 0.0034743259
-0.00088666077 -0.027099803 0.0021171796
0.00013702197 -0.027099803 0.0011540381
0.00010461197 -0.027099803 0.003155364
0.001085258 -0.027099803 0.0031713226
0.0010683765 -0.027099803 0.0021479719
5.1754309e-05 -0.027099803 0.0021597855
0.00013937874 -0.027099803 0.0041342205
-0.00090086146 -0.027099803 0.0031712044
-0.00090398052 -0.027099803 0.0051474776
0.0011189317 -0.027099803 0.0071179457
0.001062251 -0.027099803 0.0052073901
0.0010906851 -0.027099803 0.0061649829
0.0020400237 -0.027099803 0.0051693516
7.8763012e-05 -0.027099803 0.0061712535
7.6691547e-05 -0.027099803 0.0051431227
0.0010954251 -0.027099803 0.0041915448
-0.0019122199 -0.027099803 0.0011495366
-0.0029182949 -0.027099803 0.0011708754
-0.0074054305 0.0060431324 0.0013843423
-0.007405397 -0.023732645 0.0031152687
-0.0074053952 -0.024383988 0.0031087385
-0.0074053947 -0.020621354 0.0032465232
-0.0018919647 -0.027099803 -0.0048397696
-0.00095753896 -0.027099803 -0.0038023368
-0.0074054813 -0.014649036 -0.0008744105
-0.0074054799 -0.013587189 -0.00079855387
-0.0074054627 -0.0085950363 0.00019046936
-0.0074054757 -0.007633917 -0.00087278627
-0.0074054762 -0.010624435 -0.00079307781
-0.007405519 -0.0075855665 -0.0028238229
-0.0074054613 -0.025629973 0.00017017437
-0.0074054422 -0.025578722 0.00116616
-0.007405478 -0.025588924 -0.00079636718
-0.0074054641 -0.026584867 0.00012568037
-0.007405479 0.0054056384 -0.00083493808
-0.0074054599 0.0044181682 0.00014846381
-0.0039168475 -0.027099803 0.00013753762
-0.0029132518 -0.027099803 0.00016296525
-0.0074053868 -0.01457231 0.004126606
-0.0074053775 -0.01464251 0.0041445545
-0.0074053789 -0.015542049 0.0039693201
-0.007405384 -0.013590703 0.004191455
-0.0074053872 -0.015784625 0.0035339945
-0.0074053952 -0.016728673 0.0032221752
-0.0074054026 -0.01658793 0.0031216315
-0.0074053998 -0.017347032 0.0029743698
-0.0074054003 -0.018634839 0.0031417736
-0.0074054012 -0.017630121 0.0031842859
-0.00740539 -0.018444488 0.003389687
-0.0074053952 -0.019421628 0.0032282397
-0.0074053993 -0.019545857 0.0031896948
-0.0074054385 -0.024564169 0.0011669535
-0.007405444 -0.011666382 0.0011687789
-0.0074054394 -0.012580797 0.0012135671
-0.0074054468 -0.013572267 0.001106862
-0.007405444 -0.0096048173 0.0011505216
-0.0074054422 -0.0085677411 0.0011599091
-0.0074054459 -0.010592263 0.0011503577
-0.0074054217 -0.0076382775 0.0022226244
-0.0074053826 -0.005606398 0.0041651698
-0.0074053868 -0.0066038948 0.0041258386
-0.0038938599 -0.027099803 0.0020789274
-0.0074053658 -0.0022686368 0.0046459651
-0.0074053709 -0.0045677945 0.0051480797
-0.007405383 -0.0085730255 0.0042237225
-0.0074053654 -0.0056233257 0.0051619825
-0.00740537 -0.0035625643 0.005109699
-0.0074053826 -0.0076477919 0.004163255
-0.0058921925 -0.027099803 0.016171129
-0.0049749762 -0.022099802 0.016930131
-0.0048660133 -0.022099806 0.018213099
-0.0039081685 -0.027099803 0.016206594
-0.0049126516 -0.027099803 0.016147418
-0.0049536456 -0.027099803 0.015179159
-0.0049254522 -0.022099806 0.017209593
-0.0049354373 -0.027099803 0.018121785
-0.0058867838 -0.022099806 0.020105794
-0.0049027074 -0.027099803 0.017141448
-0.0049663731 -0.022099806 0.020125914
-0.005960336 -0.022099806 0.021131763
-0.0048704958 -0.027099803 0.019143457
-0.0049066781 -0.022099806 0.021186976
-0.0039590276 -0.027099803 0.018155135
-0.0074050762 -0.024620146 0.020171497
-0.0069129267 -0.027099803 0.017148195
-0.0074051125 -0.025623929 0.018177684
-0.0019185245 -0.022099806 0.021146376
-0.0018576604 -0.022099806 0.022194309
-0.0029290214 -0.022099806 0.020191032
-0.0028943461 -0.027099803 0.018162781
-0.0019071245 -0.027099803 0.018141991
-0.00090124854 -0.027099803 0.017121976
-0.0068949726 -0.015568647 0.014655823
-0.0074052103 -0.018607916 0.013203653
-0.0039063757 -0.022099806 0.016145665
-0.0040460988 -0.022099802 0.01591046
-0.004318025 -0.022099802 0.017342022
-0.0039048402 -0.027099803 0.015172792
-0.0039142738 -0.022099806 0.017185954
-0.0038676832 -0.022099806 0.018161243
-0.0049248389 -0.022099802 0.0161303
-0.0048922841 -0.027099803 0.013195081
-0.0049067265 -0.022099806 0.016215019
-0.0039737327 -0.027099803 0.014168802
-0.0047141314 -0.022099802 0.015064765
-0.0049191224 -0.02160947 0.014655785
-0.0038749869 -0.027099803 0.01311653
-0.0048885634 -0.022099806 0.015196019
-0.0074052103 -0.0096166544 0.013202125
-0.0074052112 -0.01827145 0.012681828
-0.0074052322 -0.020572208 0.012171517
-0.0074052322 -0.019609693 0.012177228
-0.0074053435 -0.025596233 0.0061815595
-0.0074054217 -0.026603216 0.002133223
-0.0074052489 -0.025570935 0.011189472
-0.0074052517 -0.026625583 0.011145682
-0.0038677023 -0.019585561 0.014655768
-0.0038999096 -0.020648913 0.014655769
-0.0028933971 -0.027099803 0.012117996
-0.0049136174 -0.01957871 0.014655788
-0.0038594413 -0.027099803 0.012214286
-0.0049005174 -0.020621449 0.014655787
-0.0028839309 -0.022099806 0.017121434
-0.0028981199 -0.027099803 0.014183798
-0.0029075057 -0.022099806 0.016124614
-0.0028915259 -0.027099803 0.015172951
-0.0019036861 -0.027099803 0.014123016
-0.001925447 -0.027099803 0.015140378
-0.0028650521 -0.022099806 0.018148867
0.0011270526 -0.014611688 0.014655672
0.0020749278 -0.017557709 0.014655653
0.0031229777 -0.027099803 0.013210468
0.0031201427 -0.017588383 0.014655634
0.0030595674 -0.016598945 0.014655635
0.003342917 -0.016907053 0.014655666
0.003120933 -0.018599736 0.014655633
0.0033856903 -0.017742191 0.014655665
0.0040142778 -0.018531345 0.014655646
0.0051056612 -0.022099806 0.018117709
0.0050971266 -0.027099803 0.016129265
0.0051068203 -0.022099806 0.019144502
0.0042634346 -0.017580073 0.014655645
0.0040787687 -0.017638126 0.014655619
0.0041396441 -0.016580205 0.014655617
0.0050740018 -0.018549038 0.014655633
0.0030810528 -0.027099803 0.011187258
-0.0074049626 -0.023566749 0.026167531
-0.007404997 -0.025600109 0.024192832
-0.0074049751 -0.024584571 0.025128178
-0.0074049653 -0.022597769 0.026132934
-0.0069426801 -0.022109868 0.022169676
-0.0069234818 -0.02212608 0.021132654
-0.0074050575 -0.022603197 0.021135226
-0.0058881193 -0.027099803 0.019173909
-0.003916827 -0.022099806 0.027196042
-0.0028971613 -0.022099806 0.030165924
-0.002885899 -0.022099806 0.02915078
-0.001885418 -0.027099803 0.026153535
-0.0029071276 -0.022099806 0.031161683
-0.00089969346 -0.022099806 0.0291532
-0.00088826782 -0.027099803 0.026127338
-0.0019516755 -0.022099806 0.031141339
-0.0019172417 -0.022099808 0.030158857
-0.0019133522 -0.027099803 0.027129101
-0.00088804949 -0.027099803 0.027164353
-0.0019323075 -0.022632049 0.031655475
0.0054317173 -0.02346172 0.031655289
0.0050944649 -0.023590457 0.031655341
0.0050817658 -0.027099803 0.029140016
0.0021043662 -0.022099806 0.02618115
0.0020838727 -0.022099806 0.027157154
0.0021141162 -0.027099803 0.023168825
0.0010956406 -0.027099803 0.024161343
0.0060799611 -0.022099806 0.027116261
0.0050644861 -0.027099803 0.024138877
0.0050680707 -0.022099806 0.026171323
0.0031133438 -0.022099806 0.019128157
0.0021250863 -0.027099803 0.016163386
0.0010941616 -0.027099803 0.022132142
-0.00094565056 -0.022099806 0.022141274
-0.00093607331 -0.027099803 0.018156832
-0.00089626061 -0.027099803 0.01914303
-0.0038633496 -0.027099803 0.022156704
-0.0039114999 -0.022099806 0.026213743
-0.00090644346 -0.022099806 0.024178319
-0.0008847955 -0.022099806 0.023151217
-0.00088477635 -0.027099803 0.020177418
-0.0019441595 -0.022099806 0.023174709
-0.00090718427 -0.027099803 0.021158336
0.0010479881 -0.022099806 0.02714034
-0.0019375777 -0.027099803 0.024154251
-0.0028942374 -0.022099806 0.027150847
0.0060552638 -0.022099806 0.026165869
0.0050850385 -0.027099803 0.022110207
0.0050894842 -0.027099803 0.023180813
0.0071247984 -0.022099806 0.026140137
0.0070783859 -0.027099803 0.02221727
0.0060862 -0.027099803 0.022155816
0.0060910052 -0.027099803 0.023216639
7.0535942e-05 -0.027099803 0.026201339
9.1666072e-05 -0.02259459 0.031655423
0.0021092398 -0.022099806 0.030149253
0.00011795331 -0.027099803 0.027120221
0.0010872479 -0.027099803 0.0281664
0.0011057581 -0.02259372 0.031655416
0.0031693471 -0.027099803 0.027175354
0.0041076862 -0.022122944 0.031173499
0.0040705749 -0.027099803 0.027165253
0.0041220132 -0.022099806 0.030156452
0.0021138703 -0.022099806 0.029144879
0.0020828166 -0.022099806 0.02814931
0.0050411443 -0.027085673 0.031172721
0.0050927321 -0.025584646 0.031655326
0.0051024118 -0.027099803 0.030151263
0.0050764135 -0.026612846 0.031655334
0.0060889777 -0.026579475 0.031655315
0.0041210284 -0.027063439 0.031162895
0.0061492785 -0.022136953 0.031160822
0.0051152869 -0.027099803 0.027173521
0.0051284977 -0.027099803 0.02618563
0.0061444743 -0.022099806 0.030138103
0.0060887719 -0.027099803 0.027160374
0.0085947588 -0.02564591 0.027167847
0.0083504114 -0.02684835 0.027144063
0.0083282087 -0.022335319 0.029139046
0.0070797787 -0.027099803 0.02614744
0.008594797 -0.023566356 0.029180292
0.0085947774 -0.024595667 0.028156793
0.0085947774 -0.023609536 0.028153399
0.0085947393 -0.025601476 0.026186856
0.008380753 -0.026833244 0.025165342
0.0085947588 -0.024614826 0.027178267
0.0083349599 -0.026848169 0.026159776
0.0071063563 -0.01762205 -0.015343849
0.0060060667 -0.027099803 -0.011835628
0.0061360244 -0.018635567 -0.015343828
0.0061149895 -0.027099803 -0.013820089
0.007275742 -0.022099802 -0.015905047
0.0070301015 -0.022099802 -0.016691925
0.0062296875 -0.022099802 -0.016031103
0.0070825424 -0.021617655 -0.015343848
0.0060523427 -0.022099806 -0.015841618
0.0060920431 -0.021599164 -0.015343823
0.008594065 -0.025589777 -0.008853755
0.0085940454 -0.022605771 -0.0098498873
0.008594065 -0.024655249 -0.0088355811
0.0083226226 -0.026858579 -0.0078779655
0.0085940463 -0.025634006 -0.0098178228
0.0085940268 -0.022592863 -0.010818206
0.0083405264 -0.026859272 -0.0098369205
0.0085940473 -0.02466397 -0.0097920075
0.0083234347 -0.026828341 -0.0088795256
0.0061248145 -0.024587478 0.031655304
0.0061095101 -0.025635101 0.031655319
0.006112501 -0.027099803 0.031128906
-0.0028973995 -0.027099803 0.028089067
-0.0029086506 -0.027099803 0.029159553
-0.0039150654 -0.024603706 0.03165552
-0.0074049039 -0.022575473 0.029130785
-0.0074049202 -0.025556106 0.028171496
-0.0058844239 -0.02560831 0.031655543
-0.0059161698 -0.027099328 0.031168371
-0.0074048475 -0.027099803 0.031655543
-0.0028910628 -0.027099803 0.026220188
-0.007404902 -0.023615511 0.029132044
-0.0068994127 -0.022604179 0.031655572
-0.0029564877 -0.027099803 0.027133297
-0.0039375955 -0.022099806 0.030120654
-0.0039557214 -0.022099806 0.031126097
-0.0074050124 -0.024360409 0.02299092
0.0085942196 -0.015581674 -0.00083409873
0.0085942382 -0.013608844 0.00014216562
0.0085942196 -0.014612221 -0.00083451596
0.0085942568 -0.005598316 0.0011284023
0.0050949985 -0.027099803 0.0011184041
0.0085942578 -0.0066442788 0.0011688508
0.0085942568 -0.0046060327 0.001125601
0.0050694477 -0.027099803 0.00014001325
0.0085940836 -0.022580294 -0.0078685926
0.0085940659 -0.016619505 -0.0088138264
0.0070404322 -0.027099803 -0.0068124351
0.0085940268 -0.016575396 -0.010832956
0.0085940259 -0.015628455 -0.010895134
0.008594065 -0.017624803 -0.0088418229
0.0085940463 -0.014618353 -0.0098341433
0.0085941805 -0.014601405 -0.0028301678
0.0060604573 -0.027099803 -0.002841261
0.0085941805 -0.013608346 -0.0028671871
0.0085941805 -0.015617335 -0.0028404363
0.0061174403 -0.027099803 -0.0018546659
0.0085940268 -0.0086016599 -0.010854362
0.0085940072 -0.0055957958 -0.01183579
0.0050943596 -0.027099803 -0.006880797
0.0085940268 -0.0076160431 -0.01084464
0.0085940268 -0.01058404 -0.010851836
0.0085940259 -0.009608414 -0.010866051
0.006091435 -0.027099803 -0.0068028825
0.0085940454 -0.013576116 -0.0098676886
-0.00091819547 -0.0066159908 0.014655715
-0.0009174057 -0.0056013595 0.014655707
-0.00088848034 -0.013560328 0.01465571
0.0020792501 -0.01857559 0.014655653
9.4813484e-05 -0.015581886 0.014655688
0.0010401837 -0.015584888 0.014655666
-0.00089189544 -0.016607467 0.01465571
-0.00087396317 -0.015622269 0.014655706
-0.00092402822 -0.017621549 0.014655707
8.4516258e-05 -0.027099803 0.011183855
-0.00087951653 -0.019588135 0.01465571
-0.00090702169 -0.018605044 0.014655707
-0.00091184705 -0.027099803 0.011106989
-0.00084084598 -0.020600088 0.014655709
-0.0018632237 -0.021610431 0.014655726
-0.00091464614 -0.027099803 0.013160744
5.6546731e-05 -0.027099803 0.013088247
-0.00086850481 -0.021583153 0.01465571
-0.0068979259 0.0034236757 0.014655827
-0.0019052787 -0.027099803 0.006140905
-0.0029148362 -0.027099803 0.0061399187
-0.0018543955 -0.027099803 0.0051934877
-0.00092620857 -0.027099803 0.0061818855
-0.0029009704 -0.027099803 0.00713254
-0.0068589821 -0.012611724 0.014655829
-0.0068973531 -0.011603418 0.014655823
0.00011040259 0.0023769436 0.014655692
9.5793665e-05 -0.027099803 0.0071813571
0.0010524099 0.0024224871 0.014655669
0.0010490838 -0.0035906343 0.014655669
0.0010833875 -0.027099803 0.0081795594
0.0011330404 -0.0045975707 0.014655668
8.1032966e-05 -0.0046258662 0.014655688
0.0078777261 -0.020591475 0.014655579
0.0070681176 -0.027099803 0.013141081
0.0050853845 -0.027099803 0.014147439
0.0060856263 -0.022099806 0.016172746
0.0061170333 -0.027099803 0.011168432
0.0072247814 -0.019526422 0.014655588
0.0072044041 -0.018579522 0.014655592
0.0060871579 -0.016591856 0.014655572
0.0052789641 -0.01766523 0.014655625
0.0070441901 -0.016565528 0.014655557
0.0071378192 -0.017596411 0.014655556
0.0040773479 -0.01858676 0.014655619
0.0040693795 -0.021604737 0.014655619
0.0041632652 -0.021516172 0.014655647
0.0050887503 -0.015601042 0.014655592
0.0049966071 -0.015401499 0.014655635
0.0051214579 -0.014613074 0.014655591
0.0052711419 -0.014538875 0.014655629
0.00595268 -0.0146303 0.014655616
0.0060948944 -0.015588143 0.014655576
0.0041060476 -0.027099803 0.011149696
0.0061061117 -0.014634652 0.01465558
0.0057716747 -0.013847444 0.01465562
0.0061181006 -0.01360896 0.014655576
0.0033176395 -0.0096851941 0.014655666
0.0031102328 -0.010558227 0.014655634
0.0034833543 -0.011058522 0.014655664
0.0038448677 -0.0095549189 0.014655653
0.0034192051 -0.0047402028 0.014655665
0.0021327953 -0.027099803 0.0091553489
0.0021130221 -0.027099803 0.008160037
0.0037039255 -0.0055501983 0.014655659
0.003076067 -0.01456272 0.014655634
0.003095147 -0.015539451 0.01465563
0.003408306 -0.014718257 0.014655665
0.0033918663 -0.01365163 0.014655665
0.0085944692 -0.0085892938 0.012160008
-0.0074052522 -0.0045968536 0.011132625
-0.0074052494 -0.0065940153 0.011185523
-0.007405248 -0.005592851 0.011151753
-0.0074052308 -0.0066540185 0.012138713
-0.0074052485 -0.0056417063 0.010731087
-0.0074052587 -0.0096544195 0.010312749
-0.0074052704 -0.0095496196 0.010172521
-0.007405242 -0.0074760541 0.011088302
-0.0074052461 -0.0066 0.010851867
-0.0074053747 -0.016599642 0.0041926135
-0.0074053849 -0.017620152 0.0041380054
-0.0074053463 -0.007561719 0.00615317
-0.0074053495 -0.0055719204 0.0061690877
-0.0039092638 -0.027099803 0.0031997378
-0.0074053342 -0.0058095884 0.00629598
-0.0074053472 -0.0066176467 0.0061901426
-0.0074053197 -0.012670654 0.0070462092
-0.0074051903 -0.012582798 0.014156053
-0.0074052145 -0.015614326 0.01317859
-0.0074051912 -0.011563263 0.014194096
-0.0069086961 -0.010577876 0.014655823
-0.0069318623 -0.0086240023 0.014655823
-0.0069100363 -0.0095925946 0.014655827
-0.0058793402 -0.014616911 0.014655803
-0.0068896567 -0.013588159 0.014655826
-0.0069263736 -0.014593861 0.014654567
-0.0058503859 -0.018609678 0.014655802
-0.0049105282 -0.017581163 0.014655785
-0.0048379637 -0.018582184 0.014655787
-0.0049288142 -0.016620731 0.014655788
-0.0039179903 -0.018585391 0.014655765
-0.0074055409 -0.026620982 -0.003859078
-0.0074055204 -0.025603613 -0.0028995753
-0.0074056163 0.0051736012 -0.0083700269
-0.0074056177 0.0043958798 -0.0078592105
-0.0074056173 0.0033853611 -0.0078471946
-0.0074056927 0.0033688673 -0.011841781
-0.0028410906 -0.027099803 -0.0068544541
-0.0074056964 0.0054070167 -0.01184829
-0.0074056904 0.0043474063 -0.011816987
-0.0074055204 -0.0095904283 -0.0028152401
-0.0074056159 -0.022597134 -0.0078550307
-0.0074055777 -0.0095959213 -0.0058840732
-0.0074055754 -0.014671127 -0.0058562346
-0.0074056359 -0.01660637 -0.0088049816
-0.0074057328 -0.0066000987 -0.013839302
-0.0074057542 -0.006607376 -0.014842663
-0.0074057514 -0.0056240782 -0.014792676
-0.0074056741 -0.0156152 -0.010797977
-0.007405668 -0.01519898 -0.011064656
-0.0048971605 -0.012609545 -0.015343618
-0.0049155303 -0.013631206 -0.015343617
-0.0038928208 -0.013578739 -0.015343633
-0.004935164 -0.016594812 -0.015343615
-0.0048889555 -0.015591803 -0.015343616
-0.0049010771 -0.011562834 -0.015343618
-0.0048703901 -0.010592733 -0.015343614
-0.0058948556 -0.0095984079 -0.015343596
-0.0019412999 -0.012642886 -0.015343674
-0.0019124816 -0.01363554 -0.015343676
-0.00191108 -0.011614912 -0.015343676
-0.0039352202 -0.011601769 -0.015343638
-0.0039297342 -0.012614856 -0.015343636
-0.0019181368 -0.027099803 -0.010868822
-0.0038938192 -0.010563599 -0.015343635
-0.0029287455 -0.027099803 -0.010796798
-0.00088796916 -0.0055966191 -0.015343689
-0.00090621063 -0.0065913331 -0.01534369
-0.00089187751 -0.027099803 -0.0098092807
